# 3D point list with one line of data per point:
#   POINT3D_ID, X, Y, Z, R, G, B, ERROR, TRACK[] as (IMAGE_ID, POINT2D_IDX)
# Number of points: 379, mean track length: 7.1717379130110137
3102 -0.57304749757423401 1.4895562276004914 0.44000626324321962 36 54 73 -1 0 1222 1 1372 2 1463 3 1405 4 1175 5 1085 6 927 7 471
3103 -0.29906003197668818 1.5720471565084069 0.4926487989767902 13 35 61 -1 0 1223 1 1373 2 1464 3 1406 4 1176 5 1086 6 928
3104 -0.38261397684611487 1.6696199517146058 0.56761986166181178 47 50 55 -1 0 1224 1 1374 2 1465 3 1407 4 1177 5 1087 6 929 7 472
3105 -0.31984110682380773 1.5677262542957953 0.49215856680654202 18 40 63 -1 0 1225 1 1375 2 1466 3 1408 4 1178 5 1088 6 930
3106 -0.22495939090538003 1.9825015122713505 0.85156370520892621 116 111 106 -1 0 1226 1 1376 2 1467 3 1409 4 1179 5 1089 6 931 7 473
3107 -0.44849306893403657 1.400873964021945 0.40089283091203098 25 82 128 -1 0 1227 1 1377 2 1468 3 1410 4 1180 5 1090
3108 -0.27130178845095404 1.645277160389095 0.56115126024014284 29 37 47 -1 0 1228 1 1378 2 1469 3 1411 4 1181 5 1091 6 932
3109 0.018874633531397209 2.4182255479682184 1.2128711592284027 46 51 58 -1 0 1229 1 1379 2 1470 3 1412 4 1182 6 933 7 474 12 1327
3110 -0.0059583586716888551 2.439699365979151 1.2323840359067197 32 39 49 -1 0 1230 1 1380 2 1471 3 1413 4 1183 5 1092 7 475
3111 -0.27920987371338707 1.637576856604483 0.54617954098640042 27 34 44 -1 0 1231 1 1381 2 1472 3 1414 4 1184 5 1093 6 934
3112 -0.52584407203570327 1.4816367895259737 0.41618004134605208 13 23 31 -1 1 1382 2 1473 3 1415 4 1185 5 1094 19 952 20 755
3113 -0.42059316965064208 1.4247073074103507 0.39281874506908826 10 33 59 -1 0 1232 1 1383 2 1474 3 1416 4 1186 5 1095 6 935
3114 -0.20554534582579181 1.9686355169780883 0.83048084117662913 80 84 87 -1 0 1233 1 1384 2 1475 3 1417 4 1187 5 1096 6 936
3115 -0.57066500681928578 1.598337333124302 0.52300746521002217 59 67 78 -1 0 1234 1 1385 2 1476 3 1418 4 1188 5 1097 6 937 7 476
3116 -0.27279365077661488 2.442971625697508 1.2166931688606772 24 32 41 -1 2 1477 3 1419 4 1189 5 1098 6 938 16 1461
3117 -0.29204308550613317 1.9880676962875163 0.87114464081608189 103 93 84 -1 0 1235 1 1386 2 1478 3 1420 16 1462
3118 -0.24677929286235398 1.4311703879132467 0.40874559601099175 18 51 80 -1 0 1236 1 1387 2 1479 3 1421 4 1190 5 1099 6 939
3119 -0.46426324896706139 1.3703858184049429 0.42373591597679067 1 0 1 -1 0 1237 1 1388 2 1480 3 1422 4 1191
3120 -0.067900619390887734 1.4312902845539364 0.40624219781509185 22 51 81 -1 0 1238 1 1389 2 1481 3 1423 4 1192 5 1100 6 940
3121 -0.045643537615804579 1.4311811010019651 0.40358605826921767 35 62 88 -1 0 1239 1 1390 2 1482 3 1424 4 1193 5 1101 6 941 7 477
3122 -0.28413442404370282 1.4334247892327958 0.40340707304433143 13 45 76 -1 0 1240 1 1391 2 1483 3 1425 4 1194 5 1102 6 942
3123 -0.37036660968974316 1.4237982586581979 0.38855732853156705 44 65 85 -1 0 1241 1 1392 2 1484 3 1426 4 1195 5 1103 6 943 7 478
3124 -0.30389971675338184 1.6687970243947863 0.56849847803317388 41 47 54 -1 0 1242 1 1393 2 1485 3 1427 4 1196 5 1104 6 944
3125 -0.56965157263990973 1.6308578147176587 0.54283869943663332 42 49 57 -1 0 1243 1 1394 2 1486 3 1428 4 1197 5 1105 6 945 7 479
3126 -0.33577191241398019 1.6125548805006744 0.51699310770506168 48 43 35 -1 0 1244 1 1395 2 1487 3 1429 4 1198 5 1106 6 946
3127 -0.3685737588302474 1.679823068440397 0.58162915639244306 36 43 51 -1 0 1245 1 1396 2 1488 3 1430 4 1199 6 947
3128 -0.10873950296998397 1.4323954959708358 0.4083569638830235 22 50 79 -1 0 1246 1 1397 2 1489 3 1431 4 1200 5 1107 6 948
3129 0.062281512885914353 1.5360320994387311 0.48712893233114035 8 24 45 -1 0 1247 1 1398 2 1490 3 1432 4 1201 5 1108 6 949
3130 -0.031600556126208122 1.4326182246328527 0.4038736923503955 20 51 80 -1 0 1248 1 1399 2 1491 3 1433 4 1202 5 1109 6 950
3131 -0.2267514440828747 1.4320727222675198 0.40472108138032353 20 51 81 -1 0 1249 1 1400 2 1492 3 1434 4 1203 5 1110 6 951
3132 -0.30543042790519592 1.476800379716759 0.41932741450814603 44 79 112 -1 0 1250 1 1401 2 1493 3 1435 4 1204 5 1111 6 952
3133 -0.30155661075008605 1.4337939280198939 0.4016878052424932 34 78 121 -1 0 1251 1 1402 2 1494 3 1436 4 1205 5 1112 6 953 12 1328 13 1267 15 1468 16 1463
3134 -0.060333382582442169 1.4315248470728517 0.40399604264349753 33 59 85 -1 0 1252 1 1403 2 1495 3 1437 4 1206 5 1113 6 954 7 480
3135 -0.40209547380354888 1.5732092777077118 0.48730952226587543 26 36 51 -1 0 1253 1 1404 2 1496 3 1438 4 1207 5 1114 6 955 7 481
3136 -0.26227983821900219 1.4337134724401015 0.40459054639586867 29 63 97 -1 0 1254 1 1405 2 1497 3 1439 4 1208 5 1115 6 956 14 1071
3137 -0.48530786783508162 1.4478122560694535 0.39385308776030159 63 87 113 -1 0 1255 1 1406 2 1498 3 1440 4 1209 5 1116 6 957 7 482
3138 -0.45302533692275421 1.5589616523122685 0.47899562124978939 17 17 18 -1 0 1256 1 1407 2 1499 3 1441 4 1210 5 1117 6 958
3139 -0.46740986211153263 1.3846110038278574 0.41993305961265615 37 65 95 -1 0 1257 1 1408 2 1500 3 1442 4 1211 5 1118 6 959
3140 -0.48901729673138455 1.4698615279481162 0.40971851039507545 15 23 31 -1 0 1258 1 1409 2 1501 3 1443 4 1212 5 1119 6 960
3141 -0.33603289306225032 1.5566788574612884 0.4891236438610066 42 80 119 -1 0 1259 1 1410 2 1502 3 1444 4 1213 5 1120 6 961 7 483
3142 -0.26202392482068859 1.6274390743250693 0.54870931487215313 21 37 52 -1 0 1260 1 1411 2 1503 3 1445 4 1214 5 1121 6 962
3143 -0.097465419300993186 2.448484119349474 1.2371350395560232 39 46 52 -1 0 1261 1 1412 2 1504 3 1446 7 484 12 1329
3144 -0.4960919039426851 1.4710809653261794 0.41261483225673895 8 12 15 -1 0 1262 1 1413 2 1505 4 1215 5 1122
3145 -0.25908934141710366 1.9193036320021704 0.7839328975941795 171 148 122 -1 0 1263 1 1414 2 1506 3 1447 4 1216 5 1123
3146 -0.51575450068982975 1.4402291873305502 0.40057037018008057 38 67 96 -1 0 1264 1 1415 2 1507 3 1448 4 1217 5 1124 6 963 7 485
3147 -0.32733747583799133 1.468206907458709 0.41222774869696788 28 57 83 -1 0 1265 1 1416 2 1508 3 1449 4 1218 5 1125 6 964 12 1330 13 1268 15 1469 16 1464
3148 -0.5628926335558978 1.4322383003586596 0.42263476618463097 21 37 55 -1 0 1266 1 1417 2 1509 3 1450 4 1219 5 1126 6 965
3149 -0.27927508844441207 1.9295498661823602 0.80343033423875654 171 148 123 -1 0 1267 1 1418 2 1510 3 1451 4 1220 5 1127 6 966
3150 -0.28445952540375979 1.4673827101614298 0.41190527151938228 52 84 115 -1 0 1268 1 1419 2 1511 3 1452 4 1221 5 1128 6 967
3151 -0.57019286315351614 1.515251317401908 0.45823632848474055 41 52 68 -1 0 1269 1 1420 2 1512 3 1453 4 1222 5 1129 7 486 17 1221
3152 -0.36121673105128244 1.4723333155040976 0.41836407357396765 27 59 87 -1 0 1270 1 1421 2 1513 3 1454 4 1223 5 1130 6 968 12 1331 15 1470
3153 -0.58514781963505835 1.603108376718579 0.53531044174621978 21 30 40 -1 0 1271 1 1422 2 1514 3 1455 4 1224 5 1131 6 969
3154 -0.24303605908053311 1.8983966406547661 0.79668128633823532 173 151 126 -1 1 1423 2 1515 3 1456 4 1225 5 1132
3155 -0.53240632896054929 1.4871314309140853 0.42770109209659668 16 21 24 -1 0 1272 1 1424 2 1516 3 1457 4 1226 5 1133 18 987 19 953
3156 0.03514099759157488 1.4467078506936466 0.41705693050451126 23 56 86 -1 0 1273 1 1425 2 1517 3 1458 4 1227 5 1134 6 970
3157 -0.52708529717712327 1.4707458689216169 0.41116773167842091 30 46 62 -1 1 1426 2 1518 3 1459 4 1228 5 1135 7 487
3158 -0.256147464372255 1.6046983463718125 0.53237365497082845 8 33 55 -1 0 1274 1 1427 2 1519 3 1460 4 1229 5 1136 6 971
3159 -0.34391237043473216 1.5009845013282015 0.43479165561911726 128 118 106 -1 1 1428 2 1520 3 1461 4 1230 5 1137 6 972
3160 -0.24496264079525307 1.9795364300331812 0.84284741337984459 159 143 124 -1 0 1275 1 1429 2 1521 3 1462 4 1231 5 1138 6 973
3161 -0.28072552574613624 1.9421607079740355 0.81181889425881371 172 152 129 -1 0 1276 2 1522 3 1463 4 1232 5 1139 6 974 7 488
3162 -0.21529951521873758 1.8928720029141166 0.77024052089139905 171 153 129 -1 0 1277 1 1430 2 1523 3 1464 4 1233 5 1140 6 975 7 489
3163 0.051493532918195861 1.4661310412929722 0.42673355839867333 23 53 81 -1 0 1278 1 1431 2 1524 3 1465 4 1234
3164 -0.26025250160368413 1.6168704789875219 0.5413172881429239 21 37 54 -1 0 1279 1 1432 2 1525 3 1466 4 1235 5 1141 6 976
3165 -0.28351912893812392 1.6568571819669224 0.5664911797043819 36 44 52 -1 0 1280 1 1433 2 1526 3 1467 4 1236 5 1142 6 977
3166 -0.41382673103496503 1.6272383892606417 0.52335512170969567 34 32 31 -1 0 1281 1 1434 2 1527 3 1468 4 1237 5 1143 6 978 7 490
3167 -0.43477779483729717 1.444891621674417 0.39540403557407444 69 93 120 -1 0 1282 1 1435 2 1528 3 1469 4 1238 5 1144 6 979 7 491
3168 -0.55693051640818059 1.6735711692538808 0.59611990223295108 21 41 63 -1 0 1283 1 1436 2 1529 3 1470 4 1239 5 1145
3169 -0.33284273451384427 1.4382131519429406 0.39448992824721757 39 78 111 -1 0 1284 1 1437 2 1530 3 1471 4 1240 5 1146 14 1072
3170 -0.28453922558667399 1.5916048001783147 0.50988805554283068 25 45 63 -1 0 1285 1 1438 2 1531 3 1472 4 1241 5 1147 6 980
3171 -0.54037929963975906 1.5741862240809454 0.50130401861154628 27 50 74 -1 0 1286 1 1439 2 1532 3 1473 4 1242 5 1148
3172 -0.12039600500443677 1.3746219805373487 0.44100214235620239 42 68 96 -1 0 1287 1 1440 2 1533 3 1474 4 1243 5 1149 7 492
3173 -0.12237367391974412 1.432976528095165 0.40391567764604214 21 50 77 -1 0 1288 1 1441 2 1534 3 1475 4 1244 5 1150 6 981
3174 -0.26773562430611531 1.4320117471411362 0.40348387388054791 29 66 100 -1 0 1289 1 1442 2 1535 3 1476 4 1245 5 1151 6 982 14 1073
3175 -0.44613522054519661 1.5556559658843823 0.47183354511113601 14 13 13 -1 0 1290 1 1443 2 1536 3 1477 4 1246 5 1152 6 983
3176 -0.33125722561008042 1.8947116818788685 0.77589599504476303 52 66 85 -1 0 1291 1 1444 2 1537 3 1478 4 1247 5 1153 6 984 7 493
3177 -0.31857617147285622 1.4948161836388623 0.43160698734691366 144 133 119 -1 0 1292 1 1445 2 1538 3 1479 4 1248 5 1154 6 985
3178 -0.33870160944694822 1.9172496331509619 0.79445428722918598 71 77 85 -1 0 1293 1 1446 2 1539 3 1480 4 1249 5 1155 6 986 7 494
3179 -0.32838744122303581 1.4910337528740623 0.43011099081157628 126 112 97 -1 0 1294 1 1447 2 1540 3 1481 4 1250 5 1156 6 987
3180 -0.43214884666411191 1.4246433185868386 0.39262758017539506 12 34 59 -1 0 1295 1 1448 2 1541 3 1482 4 1251 5 1157 6 988
3181 -0.2894536797571628 1.433572132269914 0.40114474203529193 13 47 80 -1 0 1296 1 1449 2 1542 3 1483 4 1252 5 1158 6 989 7 495
3182 -0.34102746210418083 1.5200514251632729 0.44657776449589054 86 100 109 -1 0 1297 1 1450 2 1543 3 1484 4 1253 5 1159 6 990
3183 0.035120620056083046 2.4006624000343382 1.2086168537943849 17 21 28 -1 0 1298 1 1451 2 1544 3 1485 7 496 16 1465
3184 -0.42657814964628282 1.4249360052702276 0.39173765059242643 11 33 59 -1 0 1299 1 1452 2 1545 3 1486 4 1254 5 1160 6 991
3185 -0.32738929036932596 1.5577354135361117 0.4922545612538517 25 60 92 -1 0 1300 1 1453 2 1546 3 1487 4 1255 5 1161 6 992
3186 -0.25415089983927097 1.8808131428305881 0.76385047205387513 137 127 116 -1 0 1301 1 1454 2 1547 3 1488 4 1256 5 1162 6 993
3187 -0.094998790562340715 1.4315830830108736 0.40647218365554094 24 52 81 -1 0 1302 1 1455 2 1548 3 1489 4 1257 5 1163 6 994
3188 -0.31196882246624669 1.5713343067029946 0.49059284398264102 20 38 59 -1 0 1303 1 1456 2 1549 3 1490 4 1258 5 1164 6 995
3189 -0.43602690123624932 1.445662405491446 0.39565254473596351 60 86 113 -1 0 1304 1 1457 2 1550 3 1491 4 1259 5 1165 6 996 7 497
3190 -0.053645836459905567 1.431136261163118 0.40373201513400875 35 60 87 -1 0 1305 1 1458 2 1551 3 1492 4 1260 5 1166 6 997 7 498
3191 -0.46368299881904879 1.4156922671001118 0.39076427721513313 47 94 131 -1 0 1306 1 1459 2 1552 3 1493 4 1261 5 1167 7 499
3192 -0.40043924154813842 1.6616742221719911 0.56029590169670462 49 53 57 -1 0 1307 1 1460 2 1553 3 1494 4 1262 5 1168 6 998 7 500
3193 -0.27209966063341184 1.6126045103986273 0.52717521173966631 26 39 54 -1 0 1308 1 1461 2 1554 3 1495 4 1263 5 1169 6 999 7 501
3194 -0.33054036171504958 1.4484372002792996 0.38773089214672751 59 86 110 -1 0 1309 1 1462 2 1555 3 1496 4 1264 7 502
3195 -0.56783833494038471 1.6148964711824318 0.53231524545222131 35 47 62 -1 0 1310 1 1463 2 1556 3 1497 4 1265 5 1170 6 1000
3196 -0.24072132186528464 1.9229909139541081 0.78039491780197201 168 148 125 -1 0 1311 1 1464 2 1557 3 1498 4 1266 5 1171 6 1001 7 503
3197 -0.10345425645696051 1.4324174433772294 0.40730236582601381 22 51 80 -1 0 1312 1 1465 2 1558 3 1499 4 1267 5 1172 6 1002
3198 -0.57230598447064984 1.6244427146571216 0.54104102767771878 48 54 62 -1 0 1313 1 1466 2 1559 3 1500 4 1268 5 1173 6 1003 7 504
3199 -0.31922414928139248 1.5799409927766901 0.48971574430693932 9 11 11 -1 0 1314 1 1467 2 1560 3 1501 4 1269 5 1174 6 1004
3200 -0.22730808020172183 1.8898327740481731 0.76154277256715752 172 151 124 -1 0 1315 1 1468 2 1561 3 1502 4 1270 5 1175 6 1005
3201 -0.41318175168485921 1.5834406213800167 0.49670051647852631 23 35 48 -1 0 1316 1 1469 2 1562 3 1503 4 1271 5 1176 6 1006 7 505
3202 0.038617975132069403 1.4282752823368952 0.40619863085292718 76 118 159 -1 0 1317 1 1470 2 1563 3 1504 4 1272 5 1177 6 1007
3203 -0.56272332239429412 1.4700205614568831 0.4248052780642218 45 67 89 -1 0 1318 1 1471 2 1564 3 1505 4 1273 5 1178 6 1008 7 506
3204 -0.23224573062360054 1.8687808647051971 0.75467125562585002 58 66 72 -1 0 1319 1 1472 2 1565 3 1506 4 1274 5 1179 6 1009
3205 -0.25249491260959356 1.431964693977569 0.40740056523604568 43 82 116 -1 0 1320 1 1473 2 1566 3 1507 4 1275 5 1180 6 1010 14 1074 15 1471
3206 -0.30937209660610371 1.5855504136578069 0.49266724795173478 14 14 14 -1 0 1321 1 1474 2 1567 3 1508 4 1276 5 1181 6 1011
3207 -0.49131238216195361 1.4271943338242188 0.39087182979266799 19 42 68 -1 0 1322 1 1475 2 1568 3 1509 4 1277 5 1182 6 1012
3208 -0.4743277425384605 1.3776640161053979 0.42948462755358763 40 65 90 -1 0 1323 1 1476 2 1569 3 1510 4 1278 5 1183 6 1013
3209 -0.2214965655973945 1.4320145385140186 0.40450647856423166 21 51 80 -1 0 1324 1 1477 2 1570 3 1511 4 1279 5 1184 6 1014
3210 -0.29158201205429951 1.4622312582000738 0.40772031106870382 51 80 106 -1 0 1325 1 1478 2 1571 3 1512 4 1280 5 1185 6 1015 15 1472 16 1466
3211 -0.58514450495203985 2.4098623839946964 1.1997862398845582 35 42 54 -1 1 1479 2 1572 3 1513 4 1281 5 1186 6 1016
3212 -0.26337622848210351 1.8619868461305822 0.74481334784190878 29 52 76 -1 0 1326 1 1480 2 1573 3 1514 4 1282 5 1187
3213 -0.27189370579614441 1.8948585701211773 0.76732815276402255 168 149 125 -1 0 1327 1 1481 2 1574 3 1515 4 1283 5 1188 6 1017
3214 -0.14010961723285525 1.4324763277099748 0.40304057255491882 22 50 78 -1 0 1328 1 1482 2 1575 3 1516 4 1284 5 1189 6 1018
3215 0.061098270634941665 1.5795708938393613 0.52133805570013236 8 23 41 -1 0 1329 1 1483 2 1576 3 1517 4 1285 5 1190 6 1019
3216 -0.30060028331528488 1.4811232025222438 0.42568546151324232 41 77 110 -1 0 1330 1 1484 2 1577 3 1518 4 1286 5 1191 6 1020
3217 -0.55015828121858656 1.6904559779604913 0.63809592896788248 20 35 51 -1 0 1331 1 1485 2 1578 3 1519 17 1222 20 756 21 616
3218 -0.34824792870706162 1.5136722796647037 0.44249563357829991 75 85 92 -1 0 1332 1 1486 2 1579 3 1520 4 1287 5 1192 6 1021
3219 -0.5682377356315117 1.5686275234160805 0.49862483619576364 28 39 51 -1 0 1333 1 1487 2 1580 3 1521 4 1288 5 1193 6 1022 7 507
3220 -0.41102152075541959 1.4846360371637459 0.42068423864907778 13 50 83 -1 0 1334 1 1488 2 1581 3 1522 4 1289 5 1194 6 1023
3221 -0.35000644838589667 1.662453867342033 0.56578057665923509 31 27 24 -1 1 1489 2 1582 3 1523 4 1290 5 1195 6 1024
3222 -0.30765040688069467 1.5127643439843581 0.44287196199853368 34 49 63 -1 0 1335 1 1490 2 1583 3 1524 4 1291 5 1196 6 1025
3223 -0.022033052154480738 1.4316117071044667 0.41091044693494366 21 53 82 -1 0 1336 1 1491 2 1584 3 1525 4 1292 5 1197 6 1026
3224 -0.41439094539148563 1.666681649577459 0.56766584399805831 49 62 74 -1 0 1337 1 1492 2 1585 3 1526 4 1293 5 1198 6 1027 7 508
3225 -0.35941780125834921 1.4822264250889536 0.42278797181830791 41 56 74 -1 0 1338 1 1493 2 1586 3 1527 4 1294 5 1199 6 1028 15 1473 16 1467
3226 -0.29792111555774692 1.9346008562186248 0.80543531295060866 181 160 134 -1 1 1494 2 1587 3 1528 4 1295 5 1200 6 1029
3227 -0.23848260980401481 1.9417862597209736 0.80422151935572372 174 152 127 -1 0 1339 1 1495 2 1588 3 1529 4 1296 5 1201
3228 -0.33786548941368366 1.6630796376008024 0.55762795321862091 22 20 19 -1 0 1340 1 1496 2 1589 3 1530 4 1297 5 1202 6 1030
3229 -0.57337984014349375 1.572574484488712 0.49923512621342603 59 62 66 -1 0 1341 1 1497 2 1590 3 1531 4 1298 5 1203 6 1031 7 509
3230 -0.35234704735955302 1.6228471066978409 0.53121107553897207 35 30 24 -1 0 1342 1 1498 2 1591 3 1532 4 1299 5 1204 6 1032
3231 -0.31752558048514556 1.904120379994553 0.77817459406403444 174 156 132 -1 0 1343 1 1499 2 1592 3 1533 4 1300 5 1205 6 1033 7 510
3232 -0.25821436354342225 1.4311087215527627 0.40903700371025986 28 64 98 -1 0 1344 1 1500 2 1593 3 1534 4 1301 5 1206 6 1034 14 1075
3233 -0.11441345619789833 1.4325587372513555 0.40683114268420828 22 50 79 -1 0 1345 1 1501 2 1594 3 1535 4 1302 5 1207 6 1035
3234 -0.49129810205189473 1.4006423824668206 0.41496664258930971 34 55 79 -1 0 1346 2 1595 3 1536 4 1303 5 1208
3235 -0.38793972797281212 1.4255464270078153 0.39490571287881265 34 67 100 -1 0 1347 1 1502 2 1596 3 1537 4 1304 5 1209 6 1036 10 672 15 1474 17 1223 18 988 19 954 20 757 21 617
3236 -0.56800598833368965 1.5901019344118767 0.51257915601574 30 43 58 -1 0 1348 1 1503 2 1597 3 1538 4 1305 5 1210 6 1037
3237 -0.50010239818068503 1.4715691337003942 0.40882113470590042 10 14 17 -1 1 1504 2 1598 3 1539 4 1306 5 1211
3238 -0.25925991848463292 1.9022640874260917 0.80407753356778577 170 148 123 -1 0 1349 1 1505 2 1599 3 1540 4 1307 5 1212
3239 0.037986786288679873 1.4834725982146346 0.43436558784833951 13 41 68 -1 0 1350 1 1506 2 1600 3 1541
3240 0.044560703320217492 2.3802192823286714 1.2028502000060191 12 15 17 -1 0 1351 1 1507 2 1601 3 1542 7 511 14 1076 15 1475 16 1468
3241 -0.22327963260861911 1.9394766131348615 0.80261656683018034 170 150 125 -1 0 1352 1 1508 2 1602 3 1543 4 1308 5 1213 6 1038
3242 -0.31394839127662161 1.8861105526209392 0.76570029445366439 50 65 79 -1 0 1353 1 1509 2 1603 3 1544 4 1309 5 1214 6 1039 7 512
3243 -0.56001269481849769 1.6677418881215651 0.5904022571337364 37 53 70 -1 0 1354 1 1510 2 1604 3 1545 4 1310 5 1215 7 513
3244 -0.23129017009865166 1.9181303191386323 0.78337285947538349 175 155 132 -1 0 1355 1 1511 3 1546 4 1311 5 1216 6 1040 7 514
3245 0.071399553445559552 1.5049653004595134 0.45923161492724318 14 22 33 -1 0 1356 1 1512 2 1605 4 1312 5 1217 6 1041
3246 -0.5675023637662987 1.6071120209523904 0.52798074818889951 31 46 65 -1 0 1357 1 1513 2 1606 3 1547 4 1313 5 1218 6 1042
3247 -0.33756378782770285 1.6195669896138842 0.52221919471522238 33 28 22 -1 0 1358 1 1514 2 1607 3 1548 4 1314 5 1219 6 1043
3248 -0.15801269204803728 1.4308362782018305 0.40223661022010943 23 54 82 -1 0 1359 1 1515 2 1608 3 1549 4 1315 5 1220 6 1044
3249 -0.32069527470498321 1.4679582477471398 0.41047651186109907 39 76 109 -1 0 1360 1 1516 2 1609 3 1550 4 1316 5 1221 6 1045 7 515 12 1332
3250 -0.56963674447823842 1.5776986379640887 0.50474024733347123 44 53 62 -1 0 1361 1 1517 2 1610 3 1551 4 1317 5 1222 6 1046 7 516
3251 -0.56638376481106545 1.5462401146572935 0.47418882195494882 32 39 49 -1 0 1362 1 1518 2 1611 3 1552 4 1318 5 1223 6 1047
3252 -0.51235307244370309 1.4276651566098701 0.39551435278283553 23 41 61 -1 0 1363 1 1519 2 1612 3 1553 4 1319 5 1224 6 1048 7 517
3253 0.055710096678278531 1.4467375645364469 0.41935371182536874 33 62 88 -1 0 1364 1 1520 2 1613 3 1554 4 1320 5 1225 6 1049
3254 -0.44505801005610457 1.4257364949119502 0.38504249266539531 15 40 64 -1 0 1365 1 1521 2 1614 3 1555 4 1321 5 1226 6 1050 7 518
3255 -0.24198582159032961 1.8942846367250534 0.76566516669830054 171 151 126 -1 0 1366 1 1522 2 1615 3 1556 4 1322 5 1227 6 1051 7 519
3256 -0.5633177164751425 1.492711984462064 0.4356690978671976 37 53 71 -1 0 1367 1 1523 2 1616 3 1557 4 1323 5 1228 6 1052 7 520
3257 -0.077649395310083982 1.4209861768999776 0.39159149729969833 15 36 54 -1 0 1368 1 1524 2 1617 3 1558 4 1324 5 1229 6 1053
3258 -0.32079771007908381 1.5053048125321404 0.42454585412617113 133 121 105 -1 0 1369 1 1525 2 1618 3 1559 4 1325 7 521
3259 0.071989629155403176 1.5003939865839435 0.45233909629172769 8 15 26 -1 0 1370 1 1526 2 1619 4 1326 5 1230 6 1054
3260 -0.46766715900700523 1.4698754997132288 0.41454935229258533 22 30 45 -1 0 1371 1 1527 2 1620 3 1560 4 1327 5 1231 6 1055 17 1224
3261 -0.55162357464897771 1.4745558503819747 0.42215968977339463 43 65 87 -1 0 1372 1 1528 2 1621 3 1561 4 1328 5 1232 6 1056 7 522
3262 -0.37405525570333775 1.5567009223934809 0.50508361170900595 9 31 59 -1 0 1373 1 1529 2 1622 3 1562 4 1329 5 1233 13 1269
3263 -0.087804805575189437 1.432405841729584 0.40643835614829327 20 49 78 -1 0 1374 1 1530 2 1623 3 1563 4 1330 5 1234 6 1057
3264 -0.54919006606529019 1.6773317853369334 0.58896918045610513 44 58 73 -1 0 1375 1 1531 2 1624 3 1564 4 1331 5 1235 6 1058 7 523
3265 -0.50482315320607152 1.5742772374938587 0.49437931145028347 26 33 41 -1 0 1376 1 1532 2 1625 3 1565 4 1332 5 1236 6 1059 7 524
3266 -0.14566504350154 1.4314929001190206 0.39955135384803381 23 54 82 -1 0 1377 1 1533 2 1626 3 1566 4 1333 5 1237 6 1060
3267 -0.56217207945901504 1.6742482871814552 0.59330774190479352 43 56 73 -1 0 1378 1 1534 2 1627 3 1567 4 1334 5 1238 6 1061 7 525
3268 -0.43836172264838813 1.5503029916135593 0.47060105867398172 17 20 23 -1 0 1379 1 1535 2 1628 3 1568 4 1335 5 1239 6 1062
3269 -0.077674254839524157 1.4311966575369728 0.40893246251722715 21 50 81 -1 0 1380 1 1536 2 1629 3 1569 4 1336 5 1240 6 1063
3270 -0.28643947438270861 1.586272666196088 0.50947965783070837 19 43 64 -1 0 1381 1 1537 2 1630 3 1570 4 1337 5 1241 6 1064
3271 -0.42280837834586898 1.4017011216962731 0.40695729289471161 36 60 87 -1 0 1382 1 1538 2 1631 3 1571 4 1338 5 1242 6 1065
3272 -0.34416998052660591 1.4746918132855833 0.41666721120191391 73 87 102 -1 0 1383 1 1539 2 1632 3 1572 4 1339 5 1243 6 1066
3273 -0.35280085685109519 1.6045585516802683 0.51242718329185799 71 65 55 -1 0 1384 1 1540 2 1633 3 1573 4 1340 5 1244 6 1067 7 526
3274 -0.35608908133088024 1.6634660956946272 0.56510941961038763 30 28 24 -1 0 1385 1 1541 2 1634 3 1574 4 1341 5 1245 6 1068
3275 -0.30562345461985224 1.8830467642177693 0.75675673534944787 36 53 70 -1 0 1386 1 1542 2 1635 3 1575 4 1342 5 1246 6 1069
3276 -0.1633136525512584 1.4323427261367241 0.40339771207198483 22 51 79 -1 0 1387 1 1543 2 1636 3 1576 4 1343 5 1247 6 1070
3277 -0.51168064376628108 1.6191024319690703 0.53812624306524737 33 53 74 -1 0 1388 1 1544 2 1637 3 1577 4 1344 5 1248 6 1071
3278 -0.25714806991581779 1.9489697181043684 0.80835404147072076 163 142 119 -1 0 1389 1 1545 2 1638 3 1578 4 1345 7 527
3279 -0.53785678961516836 1.6310012665856342 0.54434820907772985 48 65 85 -1 0 1390 1 1546 2 1639 3 1579 4 1346 5 1249 6 1072 7 528
3280 -0.36746225307889674 1.601240861951533 0.52227709618903562 22 18 12 -1 0 1391 1 1547 2 1640 3 1580 4 1347 5 1250
3281 -0.36059241534967584 1.6631601220626664 0.56347600396165221 28 24 21 -1 0 1392 1 1548 2 1641 3 1581 4 1348 5 1251 6 1073
3282 -0.0047373984251487151 1.4320542247290156 0.40491296661579695 19 53 82 -1 0 1393 1 1549 2 1642 3 1582 4 1349 5 1252 6 1074
3283 -0.55574467869526234 1.6839885589377714 0.63295732164443808 21 39 54 -1 0 1394 1 1550 2 1643 3 1583 17 1225 19 955 20 758 21 618
3284 -0.55958531675913448 1.4742372717088856 0.42535988203083469 45 67 90 -1 0 1395 1 1551 2 1644 3 1584 4 1350 5 1253 6 1075
3285 -0.43406250706095634 1.5815405405013556 0.50620353928551909 21 34 49 -1 0 1396 1 1552 2 1645 3 1585 4 1351 5 1254 6 1076
3286 -0.35527865093296251 1.5549551657687313 0.497143218377532 17 50 84 -1 0 1397 1 1553 2 1646 3 1586 4 1352 5 1255
3287 -0.35237849921615216 1.4777322057249989 0.42039510030524474 47 58 69 -1 0 1398 1 1554 2 1647 3 1587 4 1353 5 1256 6 1077 12 1333 13 1270 15 1476 16 1469
3288 -0.20213625847907321 1.4309349696021827 0.40237806427669298 21 54 83 -1 0 1399 1 1555 2 1648 3 1588 4 1354 5 1257 6 1078
3289 -0.47671635253515571 1.5212969311004818 0.45101022969160676 34 28 22 -1 0 1400 1 1556 2 1649 3 1589 4 1355 5 1258 6 1079
3290 -0.2638564933880706 1.4976611742275072 0.44323043922416039 33 61 91 -1 0 1401 1 1557 2 1650 3 1590 4 1356 5 1259 7 529
3291 0.071438723700864765 1.4953971806569748 0.44973413813248714 10 17 28 -1 0 1402 1 1558 2 1651 4 1357 5 1260 6 1080
3292 -0.25593507945430832 1.8567199583404983 0.74421271583008797 38 54 73 -1 0 1403 1 1559 2 1652 3 1591 4 1358 5 1261 6 1081
3293 -0.3467874768556356 1.5557684993972702 0.48872098914416046 23 57 92 -1 0 1404 1 1560 2 1653 3 1592 4 1359 5 1262 6 1082 7 530
3294 -0.19519397340427289 1.4328425791027237 0.4033625479200989 20 50 79 -1 0 1405 1 1561 2 1654 3 1593 4 1360 5 1263 6 1083
3295 -0.32858040943071914 1.4241480873241392 0.39142058207695246 17 38 61 -1 0 1406 1 1562 2 1655 3 1594 4 1361 5 1264 6 1084 7 531
3296 -0.20736607121425757 1.4323518169742964 0.40457204450284684 20 51 80 -1 0 1407 1 1563 2 1656 3 1595 4 1362 5 1265 6 1085
3297 -0.55596483043269973 1.5373574420427669 0.46080193808365461 51 55 60 -1 0 1408 1 1564 2 1657 3 1596 4 1363 5 1266 6 1086 7 532
3298 -0.30606369340410894 1.5008370192705427 0.43435248381319108 90 94 95 -1 0 1409 1 1565 2 1658 3 1597 4 1364 5 1267 6 1087
3299 -0.47452709169733626 1.5638009234422658 0.48396033515656806 12 11 9 -1 0 1410 1 1566 2 1659 3 1598 4 1365 5 1268
3300 -0.37723344867527492 1.4844551051600239 0.42303373672663308 22 52 79 -1 0 1411 1 1567 2 1660 3 1599 4 1366 5 1269 6 1088 7 533 14 1077
3301 0.071676471794369867 1.4852159501809286 0.44267944449329949 8 16 26 -1 0 1412 1 1568 2 1661 4 1367 5 1270 6 1089
3302 -0.235902594747845 1.9013938463204008 0.76276755291015352 171 151 129 -1 1 1569 2 1662 3 1600 4 1368 5 1271 6 1090 7 534
3303 -0.47025168033191928 1.4018399713489724 0.3974326570406585 36 63 91 -1 0 1413 1 1570 2 1663 3 1601 4 1369 5 1272 17 1226
3304 -0.42831340438479937 1.5412330569587966 0.45620279524947688 9 7 7 -1 0 1414 1 1571 2 1664 3 1602 4 1370 5 1273 6 1091
3305 -0.17551770926954122 1.4317800785902497 0.40498701074309806 22 53 81 -1 0 1415 1 1572 2 1665 3 1603 4 1371 5 1274 6 1092
3306 -0.24095547466725106 1.4317923619071371 0.40533965303509978 20 53 82 -1 0 1416 1 1573 2 1666 3 1604 4 1372 5 1275 6 1093
3307 -0.3900205584643161 1.6676791320747901 0.56780418688873624 50 54 58 -1 0 1417 1 1574 2 1667 3 1605 4 1373 5 1276 6 1094 7 535
3308 -0.44344230952125069 1.585548203523989 0.50942330605889663 20 34 50 -1 0 1418 1 1575 2 1668 3 1606 4 1374 5 1277 6 1095
3309 -0.53829528737811683 1.4387247833081065 0.40432075556171743 33 50 69 -1 0 1419 1 1576 2 1669 3 1607 4 1375 5 1278 6 1096 7 536
3310 0.05757372760968324 1.6717369618942153 0.59860726088707095 17 31 49 -1 0 1420 1 1577 2 1670 3 1608 4 1376 5 1279 6 1097 7 537
3311 -0.55505343590318679 1.5614202716110095 0.51226365502644189 30 47 66 -1 1 1578 2 1671 3 1609 19 956 20 759
3312 -0.32114769542437044 1.9626371777760918 0.83558369809287369 175 156 135 -1 0 1421 1 1579 2 1672 3 1610 4 1377 5 1280 6 1098
3313 -0.37698218944131823 1.432385376775529 0.39069807777150345 39 68 99 -1 0 1422 1 1580 2 1673 3 1611 4 1378 5 1281 6 1099 7 538
3314 0.070570523326944676 1.5445605332168795 0.48877665894156236 14 19 27 -1 0 1423 1 1581 2 1674 4 1379 5 1282 6 1100
3315 -0.53796231306629616 1.6084122020403799 0.52961472002124232 33 56 79 -1 0 1424 1 1582 2 1675 3 1612 4 1380 5 1283 6 1101
3316 -0.50611655594802341 1.617218297413578 0.5396487341105044 35 51 66 -1 0 1425 1 1583 2 1676 3 1613 4 1381 5 1284 6 1102
3317 -0.28695468006541824 1.9131859147614767 0.77874299477133779 158 135 109 -1 0 1426 1 1584 2 1677 4 1382
3318 -0.50321398831372821 1.559936712666615 0.47559040484647008 45 39 32 -1 0 1427 1 1585 2 1678 3 1614 4 1383 5 1285 6 1103 7 539
3319 0.045441596950724153 1.4700407561539197 0.42700200015958467 15 44 73 -1 0 1428 1 1586 2 1679 3 1615 4 1384 5 1286
3320 0.067158590122371548 1.8345088942929861 0.72672717164820655 38 39 43 -1 2 1680 3 1616 4 1385 5 1287 7 540
3321 -0.49786257838440978 1.5625050117992469 0.48415324201543569 32 27 22 -1 0 1429 1 1587 2 1681 3 1617 4 1386 5 1288 6 1104 7 541
3322 -0.59856105335334242 1.629006605981697 0.56318018937860581 1 1 1 -1 0 1430 1 1588 2 1682 3 1618 4 1387
3323 -0.392806534497327 1.4457113207052037 0.39220911165576799 67 95 119 -1 0 1431 1 1589 2 1683 3 1619 4 1388 5 1289 6 1105 7 542
3324 -0.36166007680553441 1.460509394056801 0.40842419264925156 27 56 82 -1 0 1432 1 1590 2 1684 3 1620 4 1389 5 1290 6 1106 7 543 14 1078 16 1470
3325 -0.27912751287862086 1.9209854679173115 0.79130244223899804 172 150 124 -1 0 1433 1 1591 2 1685 3 1621 4 1390 5 1291 6 1107
3326 -0.55546721688402678 1.6267294352478086 0.53906072415013551 39 56 73 -1 0 1434 1 1592 2 1686 3 1622 4 1391 5 1292 6 1108 7 544
3327 -0.32724350130209623 1.4921261247754314 0.43112315846880317 125 112 97 -1 0 1435 1 1593 2 1687 3 1623 4 1392 5 1293 6 1109
3328 0.069570515236658137 1.6026111025336756 0.54045599909612574 16 21 29 -1 0 1436 1 1594 2 1688 4 1393 5 1294 6 1110
3329 -0.5710905056485257 1.6567274130687264 0.58052825239106021 30 48 70 -1 0 1437 1 1595 2 1689 3 1624 4 1394 5 1295 6 1111
3330 -0.12684815998102963 1.432747532254983 0.40310149054735928 21 51 79 -1 0 1438 1 1596 2 1690 3 1625 4 1395 5 1296 6 1112
3331 -0.28763054707499169 1.4929489976380357 0.43326243109404478 26 62 97 -1 0 1439 1 1597 2 1691 3 1626 4 1396 5 1297 6 1113
3332 -0.13259419457290844 1.4312439305649756 0.40107039716057563 24 53 82 -1 0 1440 1 1598 2 1692 3 1627 4 1397 5 1298 6 1114
3333 -0.50873112165765733 1.3977182832599857 0.42896081014982518 33 54 76 -1 0 1441 1 1599 2 1693 3 1628 4 1398 5 1299
3334 -0.42743364280491492 1.575487045477286 0.5023916814585565 20 32 48 -1 0 1442 1 1600 2 1694 3 1629 4 1399 5 1300 6 1115
3335 -0.44457583782661358 1.445707627051958 0.39469765199857426 63 91 118 -1 0 1443 1 1601 2 1695 3 1630 4 1400 5 1301 6 1116
3336 -0.29479563525017527 1.4555154368932901 0.40537563999624787 34 66 91 -1 0 1444 1 1602 2 1696 3 1631 4 1401 5 1302 6 1117 14 1079 15 1477 16 1471
3337 -0.39121007668574398 1.4304362672040045 0.39463122751664154 33 63 92 -1 0 1445 1 1603 2 1697 3 1632 4 1402 5 1303 6 1118 7 545
3338 -0.39216109405429156 1.3763113583921831 0.43925699969649995 47 65 86 -1 0 1446 1 1604 2 1698 3 1633 4 1403 5 1304 7 546 21 619
3339 -0.3702629702813019 1.6607475518309547 0.56136949701930072 43 39 34 -1 0 1447 1 1605 2 1699 3 1634 4 1404 5 1305 6 1119 7 547
3340 -0.53212807500938586 1.4009272708878249 0.43405002895006195 39 58 78 -1 0 1448 1 1606 2 1700 3 1635 4 1405 5 1306
3341 0.070047436770632188 1.5620200813544947 0.50135527615514441 14 16 22 -1 0 1449 1 1607 2 1701 6 1120
3342 -0.19223420925896387 1.4021980297249086 0.40520852020101467 35 62 86 -1 0 1450 1 1608 2 1702 3 1636 4 1406 5 1307 6 1121
3343 -0.42572965704649818 1.618716692551085 0.52131090013773351 32 43 55 -1 0 1451 1 1609 2 1703 3 1637 4 1407 5 1308 6 1122
3344 -0.27553121198091601 1.5276707621483641 0.46208293558274022 19 49 77 -1 0 1452 1 1610 2 1704 3 1638 4 1408 5 1309
3345 -0.39921158081811398 1.484336396766587 0.42477606234176662 18 54 87 -1 0 1453 1 1611 2 1705 3 1639 4 1409 5 1310 6 1123
3346 -0.57016852148425667 1.5819694286970662 0.50932675419944595 50 58 69 -1 0 1454 1 1612 2 1706 3 1640 4 1410 5 1311 6 1124 7 548
3347 -0.29283359602837611 1.576586640913908 0.5003543023599254 22 46 71 -1 0 1455 1 1613 2 1707 3 1641 4 1411 5 1312 6 1125
3348 -0.37022490438309236 1.6720020013948345 0.56848751389442065 49 50 53 -1 0 1456 1 1614 2 1708 3 1642 4 1412 5 1313 6 1126 7 549
3349 0.0058260410428020394 1.4343844077424714 0.40333109266094558 21 54 84 -1 0 1457 1 1615 2 1709 3 1643 5 1314 6 1127
3350 -0.36836744376655217 1.5554079025470842 0.49832737522451187 13 38 66 -1 0 1458 1 1616 2 1710 3 1644 4 1413 5 1315 13 1271
3351 -0.50873874943135722 1.6031916989630726 0.52212568744498222 31 52 75 -1 0 1459 1 1617 2 1711 3 1645 4 1414 5 1316 6 1128
3352 -0.34522682588268627 1.6227101850903736 0.52257959591246228 32 27 21 -1 0 1460 1 1618 2 1712 3 1646 4 1415 5 1317 6 1129
3353 -0.30660854149091438 1.4337459147012794 0.40022014146860857 28 71 113 -1 0 1461 1 1619 2 1713 3 1647 4 1416 5 1318 6 1130 12 1334 13 1272 16 1472
3354 -0.18967019549955377 1.4322439797078748 0.40415139470031619 23 53 81 -1 0 1462 1 1620 2 1714 3 1648 4 1417 5 1319 6 1131
3355 -0.41234653697253421 1.6508337241788145 0.5504573874627865 48 54 56 -1 0 1463 1 1621 2 1715 3 1649 4 1418 5 1320 6 1132 7 550
3356 -0.286616866574195 1.4466220785526016 0.40502555758177988 8 42 72 -1 0 1464 1 1622 2 1716 3 1650 4 1419 5 1321 6 1133 14 1080
3357 -0.53897510637082457 1.5429389629142503 0.45521362740767912 25 23 22 -1 0 1465 1 1623 2 1717 3 1651 4 1420 5 1322 6 1134 7 551
3358 -0.21315184929133332 1.4321333940644836 0.40418425648111656 29 58 84 -1 0 1466 1 1624 2 1718 3 1652 4 1421 5 1323 6 1135 7 552
3359 -0.46958396146489134 1.5574951656501181 0.47577329184662875 14 12 12 -1 0 1467 1 1625 2 1719 3 1653 4 1422 5 1324 7 553
3360 -0.53602001228132357 1.3704877291245363 0.44535005888513124 0 0 0 -1 0 1468 1 1626 2 1720 3 1654 4 1423 5 1325
3361 -0.57735147211868143 1.5329309830541062 0.47373438579162164 48 51 58 -1 0 1469 1 1627 2 1721 3 1655 4 1424 5 1326 6 1136
3362 -0.52264546106707666 1.5900727860980122 0.50902180269247199 29 50 69 -1 0 1470 1 1628 2 1722 3 1656 4 1425 5 1327 6 1137
3363 -0.41239455419021886 1.6137265769622062 0.51260095680689877 35 33 30 -1 0 1471 1 1629 2 1723 3 1657 4 1426 5 1328 6 1138 7 554
3364 -0.33574621287788359 1.4363037955333589 0.39402996130586088 44 86 126 -1 0 1472 1 1630 2 1724 3 1658 4 1427 5 1329 6 1139 7 555 12 1335 13 1273 15 1478 16 1473
3365 -0.41799025054367717 1.5922903001532203 0.50373408215343729 25 35 47 -1 0 1473 1 1631 2 1725 3 1659 4 1428 5 1330 6 1140
3366 -0.097333715511535343 1.4568368964646949 0.43103658304006803 11 40 70 -1 0 1474 1 1632 2 1726 3 1660 4 1429 5 1331
3367 -0.20506812065151797 1.3969075775674902 0.40877106787422995 35 61 85 -1 0 1475 1 1633 2 1727 3 1661 4 1430 5 1332 6 1141
3368 -0.51423958537460956 1.6419127273468082 0.55586005110239967 31 54 76 -1 0 1476 1 1634 2 1728 3 1662 4 1431 5 1333 6 1142
3369 -0.53717102964976882 1.601342824218271 0.52503786712242484 32 54 77 -1 0 1477 1 1635 2 1729 3 1663 4 1432 5 1334 6 1143
3370 -0.51311013642948833 1.3705412758271003 0.43780049573401153 1 0 0 -1 0 1478 1 1636 2 1730 3 1664 4 1433
3371 -0.43627618761646325 1.4643730482517592 0.40798996204048887 25 66 103 -1 0 1479 1 1637 2 1731 3 1665 4 1434 5 1335 6 1144 7 556
3372 0.06799204010340662 1.6424403788366229 0.57139718806345852 20 24 31 -1 0 1480 1 1638 2 1732 4 1435 6 1145 7 557
3373 -0.53653980527797585 1.6217129802109558 0.54262141333376868 34 56 79 -1 0 1481 1 1639 2 1733 3 1666 4 1436 5 1336 6 1146
3374 -0.4859928556295951 1.3668540989435531 0.44382814839676732 2 1 1 -1 1 1640 2 1734 3 1667 4 1437 5 1337
3375 -0.60525458588436942 1.6216677262304515 0.55835990420445247 0 0 0 -1 0 1482 1 1641 2 1735 3 1668 4 1438 5 1338
3376 -0.56359540830141808 1.386179873322378 0.44289484368674031 0 0 0 -1 0 1483 1 1642 2 1736 3 1669 6 1147
3377 -0.35082935530524295 1.464952641727038 0.40959915862809515 28 59 89 -1 0 1484 1 1643 2 1737 3 1670 4 1439 5 1339 6 1148 7 558 14 1081 15 1479
3378 -0.55220294301205985 1.4549643476769842 0.41750464833174111 49 69 92 -1 0 1485 1 1644 2 1738 3 1671 4 1440 5 1340 6 1149 7 559
3379 -0.32540490633698882 1.5175316262432654 0.43375924223482698 84 92 98 -1 0 1486 1 1645 2 1739 3 1672 4 1441 5 1341
3380 -0.54547466868508043 1.5505557183391745 0.47097206226338983 48 52 55 -1 0 1487 1 1646 2 1740 3 1673 4 1442 5 1342 6 1150 7 560
3381 -0.54929352514703778 1.6144965805445133 0.53161195386191928 43 62 79 -1 0 1488 1 1647 2 1741 3 1674 4 1443 5 1343 6 1151 7 561
3382 -0.56510603944965287 1.6627759322530897 0.58172624272587303 40 55 74 -1 0 1489 1 1648 2 1742 3 1675 4 1444 5 1344 7 562
3383 -0.36840659039877682 1.5642572849058445 0.49157360022110036 14 30 47 -1 0 1490 1 1649 2 1743 3 1676 4 1445 5 1345 6 1152
3384 -0.45808271515643673 1.4569551051513738 0.39322144960110406 40 79 115 -1 0 1491 1 1650 2 1744 3 1677 4 1446 5 1346 6 1153 7 563
3385 0.070422274632156487 1.5118527443303988 0.46228575933417493 15 25 38 -1 0 1492 1 1651 2 1745 3 1678 4 1447 5 1347 6 1154
3386 -0.28956651613004125 1.9365654283895828 0.80874687698685577 174 153 129 -1 0 1493 1 1652 2 1746 3 1679 4 1448 5 1348 6 1155 7 564
3387 -0.59455533851526599 1.4453577313370076 0.43856194111367686 5 6 9 -1 0 1494 1 1653 2 1747 3 1680 4 1449 5 1349 6 1156 7 565
3388 0.061944715695034118 1.4898975662760714 0.45405789718361234 11 29 49 -1 0 1495 1 1654 2 1748 3 1681 4 1450 5 1350 6 1157
3389 -0.3753606323531265 1.6588610052169637 0.55620785933602401 27 24 19 -1 0 1496 1 1655 2 1749 3 1682 4 1451 5 1351 6 1158
3390 -0.60408733262431513 1.6167814166977517 0.55230058533110626 2 2 4 -1 0 1497 1 1656 2 1750 3 1683 4 1452 5 1352 7 566
3391 -0.51866103793803675 1.5690887044906818 0.48504737606623527 48 52 57 -1 0 1498 1 1657 2 1751 3 1684 4 1453 5 1353 6 1159 7 567
3392 -0.2736668958672584 1.5541968227203067 0.48217453591976916 22 50 78 -1 0 1499 1 1658 2 1752 3 1685 4 1454 5 1354 6 1160
3393 -0.53323865713196306 1.698493727191964 0.62025376325258652 32 51 73 -1 0 1500 1 1659 2 1753 3 1686 4 1455 5 1355 6 1161
3394 -0.35019388100905979 1.3708109605753742 0.43264036137047995 21 28 36 -1 1 1660 2 1754 3 1687 4 1456 5 1356 6 1162
3395 -0.40330504867564654 1.3787357243892031 0.43683565225372251 31 53 76 -1 0 1501 1 1661 2 1755 3 1688 4 1457 5 1357
3396 -0.55071770820032795 1.4942830181500819 0.4250258069333564 22 33 46 -1 0 1502 1 1662 2 1756 3 1689 4 1458 5 1358
3397 -0.59701584567580568 1.6244647472255902 0.5570134003649565 2 2 2 -1 0 1503 1 1663 2 1757 3 1690 4 1459
3398 -0.28061729268226737 1.8962111866520062 0.77621757704161531 173 154 129 -1 0 1504 1 1664 2 1758 3 1691 4 1460 5 1359 7 568
3399 -0.6061319871647799 1.6269824597986033 0.56200732996130942 0 0 0 -1 0 1505 1 1665 2 1759 3 1692 4 1461 5 1360
3400 -0.4118316609852482 1.4309448359321175 0.39158848683259351 29 61 92 -1 0 1506 1 1666 2 1760 3 1693 4 1462 5 1361 6 1163
3401 -0.37828169327980526 1.3750406864513396 0.4420482262951767 31 53 76 -1 0 1507 1 1667 2 1761 3 1694 4 1463 5 1362
3402 -0.59468839703927667 1.4510181940063811 0.43497203463113443 1 0 1 -1 0 1508 1 1668 2 1762 3 1695 4 1464 5 1363 6 1164
3403 0.05298402750152776 1.4419614136597974 0.41684592521191582 45 74 103 -1 0 1509 1 1669 2 1763 3 1696 4 1465 5 1364 6 1165
3404 -0.52096318002208897 1.5617140004112833 0.47617637026299547 43 43 42 -1 0 1510 1 1670 2 1764 3 1697 4 1466 5 1365 6 1166 7 569
3405 -0.55196070753172555 1.6079961596447767 0.52479881983611787 46 64 81 -1 0 1511 1 1671 2 1765 3 1698 4 1467 5 1366 6 1167 7 570
3406 -0.5518816465891454 1.4039788297059277 0.43925625424600401 44 55 68 -1 0 1512 1 1672 2 1766 3 1699 4 1468
3407 -0.59346544143706881 1.4605206029961817 0.43405471672007045 0 0 1 -1 0 1513 1 1673 2 1767 3 1700 4 1469 5 1367 6 1168
3408 -0.27872374080146251 1.4534230077928436 0.40399566360248429 10 45 78 -1 0 1514 1 1674 2 1768 3 1701 4 1470 5 1368 6 1169
3409 -0.54196562326614806 1.6149538987135121 0.53315125821695997 35 57 81 -1 0 1515 1 1675 2 1769 3 1702 4 1471 5 1369 6 1170
3410 -0.60645613336540427 1.6114558591934771 0.55303359952441344 1 4 6 -1 0 1516 1 1676 2 1770 3 1703 4 1472 5 1370 7 571
3411 -0.53396066537856723 1.4482283893813008 0.41049068229847335 33 58 84 -1 0 1517 1 1677 2 1771 3 1704 4 1473 6 1171 7 572
3412 -0.016861434509351104 1.4309845384752511 0.41294441225069439 22 54 85 -1 0 1518 1 1678 2 1772 3 1705 4 1474 5 1371 6 1172
3413 -0.54940299826887118 1.6359518033351139 0.57919439859188193 22 46 70 -1 1 1679 2 1773 3 1706 20 760
3414 -0.25910180008870587 1.5124044399522949 0.45559843721017601 17 45 71 -1 0 1519 1 1680 2 1774 3 1707 4 1475 5 1372 6 1173
3415 -0.48085227832754635 1.3787229519918782 0.42919787087591738 35 57 81 -1 0 1520 1 1681 2 1775 3 1708 4 1476 5 1373
3416 -0.20552439053266897 1.9031531400810506 0.78061680702687442 75 78 80 -1 0 1521 1 1682 2 1776 3 1709 4 1477 5 1374 6 1174 7 573
3417 -0.5692247925356958 1.4817170734717557 0.43090800396892509 27 46 67 -1 0 1522 1 1683 2 1777 3 1710 4 1478 5 1375 6 1175 7 574
3418 -0.55406541102698348 1.3754645565064998 0.45253751423144173 0 0 0 -1 0 1523 1 1684 2 1778 3 1711 4 1479 5 1376
3419 -0.59761826848560873 1.7148067947843633 0.63609111553231867 11 13 17 -1 0 1524 1 1685 2 1779 3 1712 4 1480 5 1377 6 1176
3420 -0.57440186391859771 1.5149255537318107 0.45798523624483534 48 54 64 -1 0 1525 1 1686 2 1780 3 1713 4 1481 5 1378
3421 -0.30485419529114299 1.5656671518487801 0.48777999001069788 21 50 78 -1 0 1526 1 1687 2 1781 3 1714 4 1482 5 1379 6 1177
3422 0.069608567374809957 1.5693068520493336 0.50680435199864504 15 22 34 -1 0 1527 1 1688 2 1782 4 1483 5 1380 6 1178
3423 -0.53362777081113388 1.5602962438027499 0.47584519082410343 43 48 50 -1 0 1528 1 1689 2 1783 3 1715 4 1484 5 1381 6 1179 7 575
3424 0.061486368589434723 1.5459456721349178 0.49617294023859287 8 24 43 -1 0 1529 1 1690 2 1784 3 1716 4 1485 5 1382 6 1180
3425 -0.60550499656822276 1.6324478405346461 0.56729883670287595 1 0 0 -1 0 1530 1 1691 2 1785 3 1717 4 1486 5 1383
3426 -0.5479846819060552 1.5669180291331863 0.49054571766655547 34 50 68 -1 0 1531 1 1692 2 1786 3 1718 4 1487 5 1384 6 1181
3427 -0.16829767891606104 1.4323734523660605 0.4020774194433529 22 51 79 -1 0 1532 1 1693 2 1787 3 1719 4 1488 5 1385 6 1182
3428 -0.55727246567592836 1.5209122718814254 0.44343868888660254 25 34 43 -1 0 1533 1 1694 2 1788 3 1720 4 1489 5 1386
3429 -0.47661848467131301 1.5836674788692717 0.50428133763389893 23 35 48 -1 0 1534 1 1695 2 1789 3 1721 4 1490 5 1387 6 1183
3430 -0.6057098282623351 1.6402698590086935 0.57107387629777262 0 0 0 -1 0 1535 1 1696 2 1790 3 1722 4 1491 5 1388
3431 -0.50618071999406178 1.4581265075554402 0.40873920632055871 42 70 99 -1 0 1536 1 1697 2 1791 5 1389 6 1184 7 576
3432 -0.5059095839034925 1.3679739224822487 0.43965378893851725 1 0 1 -1 0 1537 1 1698 2 1792 3 1723 4 1492
3433 -0.60512599054402372 1.6005649858306885 0.54108772900128232 1 3 5 -1 0 1538 1 1699 2 1793 3 1724 4 1493 5 1390 7 577
3434 -0.60279910437034956 1.5910183021109701 0.53031275575031789 2 2 5 -1 0 1539 1 1700 2 1794 3 1725 4 1494 5 1391 7 578
3435 -0.42530247487007666 1.5357691515083201 0.45786318902989925 12 15 19 -1 0 1540 1 1701 2 1795 3 1726 4 1495 5 1392 6 1185
3436 -0.5118748669716654 1.5963554175279309 0.51444070196992198 29 50 69 -1 0 1541 1 1702 2 1796 3 1727 4 1496 5 1393 6 1186
3437 -0.55790073587361377 1.3841270404726373 0.43939564337801607 0 0 0 -1 0 1542 1 1703 2 1797 3 1728
3438 -0.51710382357478746 1.6171989701630956 0.5351388143784388 31 52 76 -1 0 1543 1 1704 2 1798 3 1729 4 1497 5 1394 6 1187
3439 -0.6045636282712058 1.5852300846989542 0.52667383245420951 0 0 0 -1 0 1544 1 1705 2 1799 3 1730 4 1498 5 1395
3440 -0.54675536868061103 1.6294085563865959 0.54100347612752631 44 61 79 -1 0 1545 1 1706 2 1800 3 1731 4 1499 5 1396 6 1188 7 579
3441 -0.60538758980457319 1.6676540115539229 0.58939588330905091 0 0 1 -1 0 1546 1 1707 2 1801 3 1732 4 1500 5 1397 6 1189
3442 -0.59425303529882534 1.4396687056535691 0.43861518392557652 0 1 2 -1 0 1547 1 1708 2 1802 3 1733 4 1501 5 1398 6 1190
3443 -0.36163227414651922 1.5637702225419865 0.4952257447125229 17 36 57 -1 0 1548 1 1709 2 1803 3 1734 4 1502 5 1399 6 1191
3444 -0.54304494713553986 1.4829864171069562 0.41615439833267226 26 41 53 -1 0 1549 1 1710 2 1804 3 1735 4 1503 5 1400 7 580
3445 -0.18100650273831431 1.4318415129768129 0.40614492749317055 22 53 82 -1 0 1550 1 1711 2 1805 3 1736 4 1504 5 1401 6 1192
3446 -0.50491077570167686 1.3793201866988503 0.43202518414147584 36 56 75 -1 0 1551 1 1712 2 1806 3 1737
3447 -0.54497309090112578 1.620420280752578 0.53861821909883867 34 57 80 -1 0 1552 1 1713 2 1807 3 1738 4 1505 5 1402 6 1193
3448 -0.42290032687748047 1.5320205636102875 0.44743297365028689 6 6 6 -1 0 1553 1 1714 2 1808 3 1739 4 1506 5 1403 6 1194
3449 -0.49728294668353046 1.3659702315178279 0.44351012075792073 2 0 0 -1 1 1715 2 1809 3 1740 4 1507
3450 -0.39277230678605307 1.4260540035406855 0.39359211350449402 19 42 67 -1 0 1554 1 1716 2 1810 3 1741 4 1508 5 1404 6 1195 7 581
3451 -0.5853317673687054 1.5322541637297753 0.47997404833492524 26 43 61 -1 0 1555 1 1717 2 1811 3 1742 4 1509 5 1405 7 582
3452 -0.50002073997071117 1.4373655665294784 0.39595919827595805 39 68 97 -1 0 1556 1 1718 2 1812 3 1743 4 1510 5 1406 6 1196 7 583
3453 -0.32504086737633292 1.3986421099598372 0.41435474129240946 37 65 93 -1 0 1557 1 1719 2 1813 3 1744 4 1511 5 1407 6 1197 17 1227
3454 -0.52051849991750176 1.6262823628948606 0.54351871647897254 32 54 77 -1 0 1558 1 1720 2 1814 3 1745 4 1512 5 1408 6 1198
3455 -0.3698727357180881 1.5418719594051704 0.47449263640360373 20 47 73 -1 0 1559 1 1721 2 1815 3 1746 4 1513 5 1409 6 1199
3456 -0.55233829228879494 1.5937527003217893 0.53846729004396643 30 46 63 -1 1 1722 2 1816 17 1228 19 957 20 761
3457 -0.51588873116811518 1.604295228182576 0.52619664907333819 30 51 74 -1 0 1560 1 1723 2 1817 3 1747 4 1514 5 1410 6 1200
3458 -0.55304858073797847 1.6087307281707868 0.55327228810566942 28 48 67 -1 1 1724 2 1818 3 1748 17 1229 19 958
3459 -0.57398211651524567 1.597022673173544 0.51936305934763238 53 58 64 -1 0 1561 1 1725 2 1819 3 1749 4 1515 5 1411 6 1201 7 584
3460 -0.59195632811505838 1.4309865582243444 0.44276454597214882 1 1 0 -1 0 1562 1 1726 2 1820 3 1750 4 1516 5 1412
3461 -0.45724186118081617 1.5908677382377019 0.51143797169291894 36 48 59 -1 0 1563 1 1727 2 1821 3 1751 4 1517 5 1413 6 1202 7 585
3462 -0.48008272050926687 1.4367388232334652 0.39562934966839874 81 132 162 -1 0 1564 1 1728 2 1822 3 1752 4 1518 5 1414 6 1203 16 1474 17 1230 18 989 19 959 20 762
3463 -0.52913442360164131 1.5897280865129331 0.51256185584799263 30 48 66 -1 0 1565 1 1729 2 1823 3 1753 4 1519 5 1415 6 1204 7 586
3464 -0.60243687856897643 1.580473197853612 0.51815468268923237 0 0 0 -1 0 1566 1 1730 2 1824 3 1754 4 1520 5 1416 6 1205
3465 -0.58276032094570129 1.5101384255577368 0.45722803289779212 17 26 41 -1 0 1567 1 1731 2 1825 3 1755 4 1521 5 1417
3466 -0.5982636837137042 1.6789163599028381 0.60634974751469117 3 4 5 -1 0 1568 1 1732 2 1826 3 1756 4 1522 5 1418
3467 -0.53242533980492024 1.6294850365200297 0.54503586313703067 33 55 78 -1 0 1569 1 1733 2 1827 3 1757 4 1523 5 1419 6 1206
3468 -0.53657934445080269 1.5861333630377727 0.51159201869244075 33 54 77 -1 0 1570 1 1734 2 1828 3 1758 4 1524 5 1420 6 1207
3469 -0.6064782925002028 1.6456672413661337 0.5733175495262286 13 12 10 -1 0 1571 1 1735 2 1829 3 1759 4 1525 5 1421 6 1208 7 587
3470 -0.5108885779202349 1.6140910379371254 0.5347299091275054 31 54 77 -1 0 1572 1 1736 2 1830 3 1760 4 1526 5 1422 6 1209
3471 -0.42235512144353143 1.6312459928860061 0.53027876526163087 33 42 50 -1 0 1573 1 1737 2 1831 3 1761 4 1527 5 1423 6 1210
3472 -0.60250319993502 1.5652952593205363 0.50234839757896288 3 4 5 -1 0 1574 1 1738 2 1832 3 1762 4 1528 5 1424 6 1211 7 588
3473 -0.3863932403131819 1.436282676802684 0.39227512180634116 50 78 104 -1 0 1575 1 1739 2 1833 3 1763 4 1529 5 1425 6 1212 7 589
3474 -0.51742225672915843 1.6341983948309686 0.54792040960263899 28 50 73 -1 0 1576 1 1740 2 1834 3 1764 4 1530 5 1426 6 1213
3475 -0.59536259547218495 1.4659880034430519 0.43732921788673285 1 0 1 -1 0 1577 1 1741 2 1835 3 1765 4 1531 5 1427
3476 -0.48206194671338909 1.4026505722080944 0.40509637338791471 32 54 76 -1 0 1578 1 1742 2 1836 3 1766 4 1532 5 1428
3477 -0.54034220788117715 1.5839000764466564 0.50450953400193188 34 56 78 -1 0 1579 1 1743 2 1837 3 1767 4 1533 5 1429 6 1214
3478 -0.5990331230942304 1.6342535401779297 0.56833901243729612 1 1 2 -1 0 1580 1 1744 2 1838 3 1768 4 1534
3479 -0.60469148791455218 1.6616058227115733 0.58558838394805579 0 0 1 -1 0 1581 1 1745 2 1839 3 1769 4 1535 5 1430 6 1215
3480 -0.40268303588349624 1.6506058398278487 0.54392089728630366 45 46 48 -1 0 1582 1 1746 2 1840 3 1770 4 1536 5 1431 6 1216 7 590
