# 3D point list with one line of data per point:
#   POINT3D_ID, X, Y, Z, R, G, B, ERROR, TRACK[] as (IMAGE_ID, POINT2D_IDX)
# Number of points: 401, mean track length: 6.4117567567567564
319 0.451761196545161 0.41682764757045487 2.6361490094691855 0 0 0 -1 1 29 4 17 5 192 6 67 8 24 9 194 13 31
5407 0.16333063722959207 0.32200453123486283 2.3961841498555021 126 153 173 -1 0 1939 3 3331 5 3024 6 1970 7 3760 10 163 11 3341 12 3741
320 0.50371182904284695 0.35240560165259149 2.7171836813925578 0 0 0 -1 1 30 9 195 13 32
5408 -0.81475824587319878 0.21733989241391705 1.9712330292751767 63 67 57 -1 0 1940 2 1428 3 3332 6 1971 7 3761 11 3342 12 3742
321 0.58380377688732177 1.0565601094049339 2.2260467206488483 118 146 168 -1 1 31 3 43 6 68 7 52 8 25 9 196 11 60 12 71 13 33
5409 -0.057742444693320613 -0.15519051143674512 2.5602227762068486 111 139 163 -1 0 1941 2 1429 3 3333 5 3025 6 1972 7 3762 9 2978 11 3343 12 3743
322 0.48979450810845337 0.42056512704716176 2.6485916018911371 0 0 0 -1 1 32 6 69 9 197 13 34
5410 -1.1091213634591526 -0.072869375659213517 2.1557581394991829 0 0 1 -1 0 1942 7 3763 11 3344 12 3744
323 0.23303232590732181 1.0310412761072691 2.0248920935042745 99 130 156 -1 3 44 4 18 5 193 7 53 9 198 11 61 12 72 13 35
5411 -0.005659513862861806 -0.03952216115375097 2.5206921632682171 113 142 166 -1 0 1943 2 1430 3 3334 5 3026 6 1973 7 3764 9 2979 11 3345 12 3745
324 0.63146493557009342 0.96150458862247057 2.3041472665444012 128 153 172 -1 1 33 3 45 5 194 7 54 8 26 9 199 11 62 12 73 13 36
5412 0.080226024492103629 0.069108248067311584 2.4943513584544168 115 144 169 -1 0 1944 2 1431 3 3335 5 3027 6 1974 7 3765 9 2980 11 3346 12 3746
325 0.45735670431617459 0.37069585339328265 2.6692773374985412 0 0 0 -1 1 34 9 200 13 37
5413 -0.69834257341683836 0.68903380683255955 1.954889543722288 0 0 0 -1 0 1945 3 3336 5 3028 6 1975 7 3766 9 2981 11 3347 12 3747
326 0.69989666737820111 1.2338167592110558 2.184632650361225 44 59 60 -1 1 35 5 195 7 55 8 27 9 201 12 74 13 38
5414 0.054818830583371475 0.19347037954558549 2.4063252437136544 120 148 170 -1 0 1946 3 3337 5 3029 6 1976 7 3767 11 3348
327 0.72687412355445935 0.98465539125901336 2.3564987291124302 40 67 91 -1 1 36 3 46 7 56 11 63 12 75 13 39
5415 -0.91472223999218416 -0.0098673256886134316 2.010127169606839 75 98 119 -1 2 1432 3 3338 6 1977 7 3768 11 3349 12 3748
328 0.28914872054150159 1.0661004265883471 2.0245800355175869 76 104 127 -1 1 37 3 47 4 19 7 57 8 28 9 202 12 76 13 40
5416 -0.072614014278411437 -0.32590239805806154 2.6445924330995298 0 0 0 -1 3 3339 6 1978 7 3769 9 2982 11 3350 12 3749
329 0.61642633304618255 0.93351443959014868 2.30488679142444 122 146 165 -1 1 38 3 48 5 196 6 70 7 58 8 29 9 203 11 64 12 77 13 41
5417 -0.10635484542604645 -0.35713923487221844 2.6484504858394358 0 0 0 -1 0 1947 2 1433 3 3340 6 1979 7 3770 9 2983 11 3351 12 3750
330 0.69341928879783776 0.95418381888430037 2.3201726430560696 33 56 72 -1 1 39 3 49 7 59 11 65 12 78 13 42
5418 -0.94513605199203499 -0.065709770793792685 2.0580579623806137 93 108 118 -1 0 1948 7 3771 11 3352 12 3751
331 0.44564282213275735 0.36355601402205523 2.6765435108614746 0 0 0 -1 1 40 8 30 13 43
5419 -0.56975567849022524 0.69040462668618763 1.8851217469012258 29 32 31 -1 0 1949 5 3030 6 1980 7 3772 9 2984 11 3353
332 0.38212606808973604 1.2112588980272823 1.9950809428824436 76 108 131 -1 1 41 3 50 7 60 8 31 9 204 11 66 12 79 13 44
5420 -1.0506203013864308 0.13545518630943437 2.094032586288137 0 0 0 -1 0 1950 7 3773 11 3354 12 3752
333 0.44361460909593675 1.2227285965262147 2.0705781874570399 116 148 176 -1 1 42 3 51 5 197 7 61 8 32 9 205 11 67 12 80 13 45
5421 -0.4102417849555467 -0.0883835501644743 2.3343484279165461 104 133 160 -1 0 1951 2 1434 3 3341 5 3031 6 1981 11 3355 12 3753
334 0.85791282070841968 1.2342657441073246 2.3488006610300634 24 38 46 -1 3 52 5 198 13 46
5422 -0.85024616834498135 0.49611612663540439 1.9934787418516002 0 0 0 -1 0 1952 3 3342 5 3032 7 3774 9 2985 11 3356 12 3754
335 0.47372751409058361 0.35012458529935103 2.6936351799523095 0 0 0 -1 1 43 9 206 13 47
5423 -0.83071739928092903 0.36150993661014991 2.0158542860203941 26 29 25 -1 0 1953 3 3343 6 1982 7 3775 9 2986 11 3357 12 3755
336 0.61109511663671323 0.47835980053206495 2.7412491370052998 0 0 0 -1 1 44 8 33 9 207
5424 -0.77311528676144359 0.28751013465200026 1.9631799469408333 71 71 58 -1 0 1954 3 3344 7 3776 11 3358 12 3756
337 0.40391172244690071 1.0359120159470501 2.1497017875295055 124 130 128 -1 1 45 3 53 4 20 7 62 8 34 9 208 11 68 12 81 13 48
5425 -0.76885306114623209 0.29596972424839124 1.9592433539885037 59 63 55 -1 0 1955 2 1435 3 3345 5 3033 7 3777 11 3359 12 3757
338 0.61171202103876243 0.35991563434243973 2.8418970409727864 0 0 0 -1 1 46 2 279 8 35 9 209
5426 -0.13039556264389532 -0.11304456116133586 2.4920623971239757 113 141 164 -1 0 1956 2 1436 3 3346 6 1983 7 3778 9 2987 11 3360 12 3758
339 0.68531537059441583 0.920562906261152 2.3706305153510674 31 50 66 -1 1 47 3 54 7 63 11 69 12 82
5427 -0.32933434455230515 -0.12446490974333713 2.403537558130918 104 133 160 -1 2 1437 3 3347 6 1984 9 2988 11 3361 12 3759
340 0.3682096043309388 0.37800825341893374 2.6106775708949228 0 0 0 -1 1 48 4 21 13 49
5428 -0.1384162486234401 -0.087942813784442242 2.471048447082639 113 142 165 -1 0 1957 2 1438 3 3348 5 3034 6 1985 7 3779 11 3362 12 3760
341 0.70075970111404551 1.017594038947391 2.2985576828301055 17 33 40 -1 1 49 3 55 5 199 7 64 8 36 9 210 11 70 12 83 13 50
5429 -0.4158066062007188 -0.48649821791628967 2.5713537673122304 121 147 173 -1 0 1958 2 1439 6 1986 9 2989 11 3363
342 0.44725561676964753 0.81422747760976144 2.2661272618355288 96 133 166 -1 1 50 3 56 4 22 5 200 6 71 7 65 9 211 12 84 13 51
5430 -0.29486378814349451 -0.33656675182036794 2.5413895596973219 106 133 158 -1 0 1959 2 1440 3 3349 5 3035 6 1987 7 3780 9 2990 11 3364 12 3761
343 0.52457135804865096 0.38875791047255692 2.6973920343589088 0 0 0 -1 1 51 9 212 13 52
5431 -1.0222385524366657 -0.058472040623422032 2.0888827169509998 42 47 40 -1 0 1960 3 3350 6 1988 7 3781 11 3365 12 3762
344 0.71682662063121794 1.079285183568343 2.2556519342767962 92 104 108 -1 3 57 5 201 6 72 8 37 13 53
5432 -0.65169790387444471 0.57800183855765597 1.9180640229633847 32 36 33 -1 0 1961 5 3036 6 1989 7 3782 9 2991 11 3366 12 3763
345 -0.027552254759314752 1.4004894482353638 1.7144864534794002 62 79 94 -1 1 52 11 71 12 85
5433 -0.71981209683717651 0.47200483849002034 1.954672328214619 32 37 34 -1 0 1962 3 3351 6 1990 7 3783 9 2992 11 3367 12 3764
346 0.67316075461569969 0.89558648764426685 2.4325464193587667 35 65 86 -1 1 53 3 58 9 213 11 72 13 54
5434 -0.2329089068313023 1.0753800322294578 1.7078162820771046 69 92 109 -1 0 1963 5 3037 7 3784 9 2993 11 3368 12 3765
347 0.68212401897953512 1.0026889791038873 2.2995449497480718 44 64 75 -1 1 54 3 59 6 73 7 66 9 214 11 73 12 86 13 55
5435 -0.37259121091072422 0.99930553420452251 1.8134315525509004 8 13 13 -1 0 1964 3 3352 5 3038 7 3785 11 3369 12 3766
348 0.46130942726942542 0.55075814175033866 2.5284523790951834 25 31 36 -1 1 55 4 23 5 202 8 38 9 215 13 56
5436 -0.40832251132463604 0.90950343244728427 1.8240362062671274 25 34 33 -1 0 1965 3 3353 5 3039 7 3786 11 3370 12 3767
349 0.48693133430147922 0.83828040177853758 2.2655549754501734 109 138 160 -1 3 60 5 203 7 67 9 216 12 87
5437 -0.77461795090052821 0.59509592107104958 1.9682983775861527 0 0 0 -1 0 1966 3 3354 5 3040 7 3787 9 2994 10 164 11 3371 12 3768
350 0.51917568385317392 1.0026342834798072 2.2255845917023538 128 161 190 -1 1 56 3 61 5 204 6 74 7 68 8 39 11 74 12 88 13 57
5438 -0.29043977134585736 1.1430877317996504 1.768069780760849 15 23 22 -1 0 1967 3 3355 5 3041 7 3788 11 3372 12 3769
351 0.6217593358361112 0.46486488966373679 2.7623091615452577 0 0 0 -1 1 57 8 40 9 217
5439 -0.13309690236336336 -0.016920981125386779 2.4376101700361557 113 140 161 -1 0 1968 3 3356 5 3042 6 1991 7 3789 9 2995 11 3373 12 3770
352 0.70303894704335856 1.1937955281809627 2.2119505118423661 106 108 105 -1 1 58 7 69 8 41 9 218 12 89 13 58
5440 -1.0469722074172252 -0.019610668961819604 2.1209307875408627 37 42 36 -1 0 1969 2 1441 3 3357 7 3790 11 3374 12 3771
353 0.55197797800654536 0.32721461168988486 2.8083912682197698 0 0 0 -1 1 59 8 42 9 219
5441 -0.223336909122613 1.0872069896954426 1.7121266103083745 77 101 120 -1 0 1970 5 3043 7 3791 9 2996 11 3375 12 3772
354 0.3887101422009227 0.48071112808558264 2.512162550224263 110 147 178 -1 1 60 3 62 6 75 7 70 11 75 12 90 13 59
5442 -0.42165694759764311 0.93515640106118003 1.8224393479921284 18 26 25 -1 0 1971 3 3358 5 3044 6 1992 7 3792 9 2997 11 3376 12 3773
355 0.58663110083898273 0.76115425917760482 2.4725592799726739 91 132 167 -1 1 61 3 63 8 43 9 220 11 76 13 60
5443 -0.99845163563389394 0.26947792190056291 2.049468985228069 0 0 0 -1 0 1972 3 3359 7 3793 9 2998 11 3377 12 3774
356 0.47021469881792932 0.43270629820135575 2.6418442420503094 0 0 0 -1 1 62 4 24 5 205 8 44 13 61
5444 -0.29024013223053863 0.9868942690976279 1.7373319687545528 70 91 108 -1 0 1973 5 3045 7 3794 9 2999 11 3378 12 3775
357 0.53193272410865566 0.68244028879770824 2.4131474108372908 110 150 190 -1 1 63 7 71 12 91 13 62
5445 0.27867838294358749 0.44430158517091567 2.3758361759346824 140 167 189 -1 0 1974 3 3360 5 3046 6 1993 7 3795 11 3379 12 3776
358 -0.058693289150685383 0.42066660714754023 2.2177445638793705 80 114 142 -1 1 64 3 64 4 25 5 206 6 76 7 72 9 221 11 77 12 92 13 63
5446 0.028595556305428357 -0.140596950856122 2.5921502660072386 0 0 0 -1 0 1975 2 1442 3 3361 5 3047 6 1994 7 3796 9 3000 11 3380 12 3777
359 0.56495567479446085 0.39285051360054141 2.7662217157748388 0 0 0 -1 1 65 2 280 8 45 9 222
5447 0.01022393195221819 0.38500210852585248 2.2744019621415612 118 149 177 -1 0 1976 2 1443 3 3362 5 3048 6 1995 7 3797 11 3381 12 3778 13 2606
360 0.67883367609030676 0.88017870142548926 2.4766918466157555 3 9 10 -1 1 66 5 207 8 46 11 78 13 64
5448 -1.0991820789622968 -0.085489892840884554 2.1512896899065117 1 1 1 -1 0 1977 2 1444 7 3798 11 3382 12 3779
361 0.44420532638673788 0.39268414415829506 2.6535112337151712 0 0 0 -1 1 67 4 26 5 208 8 47 13 65
5449 -0.51044846080797901 0.77894429095426798 1.8584822373357446 29 32 31 -1 0 1978 5 3049 6 1996 7 3799 9 3001 11 3383 12 3780
362 0.43282004482743303 0.83678560623947951 2.2395921066219096 89 125 157 -1 1 68 3 65 5 209 7 73 9 223 12 93 13 66
5450 -0.030100934469451793 0.032516527199615848 2.4601626339977707 116 145 168 -1 0 1979 2 1445 3 3363 5 3050 6 1997 7 3800 9 3002 11 3384 12 3781
363 0.47337856753161373 1.285139318281211 2.0394465530548938 158 174 179 -1 3 66 5 210 7 74 8 48 9 224 12 94 13 67
5451 -0.098512818120232742 -0.15221176453267246 2.5326416195844463 113 143 167 -1 0 1980 2 1446 3 3364 5 3051 6 1998 7 3801 9 3003 11 3385
364 0.23567007423102482 0.11333622151358472 2.7066119248400708 0 0 1 -1 1 69 3 67 4 27 13 68
5452 -0.78126542462354676 0.56881982106844076 1.9764047873529185 0 0 0 -1 0 1981 3 3365 5 3052 7 3802 9 3004 11 3386 12 3782
365 0.65658571910423413 0.88367083128014967 2.3372425223186037 45 67 89 -1 1 70 7 75 9 225 11 79 12 95 13 69
5453 -0.31493577119448524 1.0615454959687702 1.7919505958509334 24 33 34 -1 0 1982 3 3366 5 3053 6 1999 7 3803 9 3005 12 3783
366 0.51252981730182656 0.36510609346887796 2.7244524657998119 0 0 0 -1 2 281 8 49 9 226 13 70
5454 -0.92238624864535024 0.14562222427655072 2.0426447759574025 31 37 34 -1 0 1983 2 1447 3 3367 6 2000 7 3804 11 3387 12 3784
367 0.47650388289876061 0.35332915665812475 2.7007463342035107 0 0 0 -1 1 71 8 50 9 227 13 71
5455 -0.24146470967885159 1.1439272503451945 1.7337661546512988 35 42 39 -1 0 1984 5 3054 7 3805 9 3006 11 3388 12 3785
368 0.73812521504423123 1.0187674035815988 2.3086800410900592 37 55 65 -1 1 72 3 68 7 76 8 51 9 228 11 80 12 96
5456 -0.61390430587721645 0.77383170155407699 1.9143355211178179 0 0 0 -1 0 1985 3 3368 5 3055 6 2001 7 3806 11 3389 12 3786
369 0.45547905641390057 0.42398000861614799 2.6375162253730222 0 0 0 -1 1 73 4 28 5 211 8 52 13 72
5457 -0.18482970640732729 -0.49362042079585777 2.6921890460153182 0 0 0 -1 0 1986 2 1448 3 3369 5 3056 6 2002 7 3807 11 3390 12 3787
370 0.68455167956629159 0.93066262338579941 2.3555161681494585 33 52 63 -1 3 69 7 77 9 229 11 81 12 97 13 73
5458 -0.39655497117359528 0.81364161037472293 1.7737417096754498 68 93 111 -1 3 3370 5 3057 7 3808 9 3007 11 3391 12 3788
371 0.46216243101430843 0.89092870957271975 2.2435956912007078 105 133 158 -1 1 74 3 70 4 29 6 77 7 78 8 53 11 82 12 98
5459 -0.61429859777407758 0.82555058268660708 1.9101822013931975 0 0 0 -1 0 1987 3 3371 6 2003 7 3809 11 3392 12 3789
372 0.8261668426617349 1.255719415208818 2.2585633208084812 80 117 149 -1 1 75 5 212 7 79 12 99 13 74
5460 -0.88785350859637346 0.43057668851712066 2.006286627445343 0 0 0 -1 0 1988 3 3372 5 3058 7 3810 9 3008 11 3393 12 3790
373 0.73813725459167645 1.0105661427009411 2.3210388594484344 39 66 90 -1 1 76 3 71 7 80 12 100 13 75
5461 -0.44403020411193089 0.97827659652177923 1.8546852896225585 19 21 18 -1 0 1989 3 3373 5 3059 7 3811 9 3009 12 3791
374 0.46527340314753712 0.42388125586329006 2.6396150457059142 0 0 0 -1 1 77 4 30 5 213 8 54 9 230 13 76
5462 -0.65700108159130843 0.5922702117310803 1.9302494767694263 29 34 32 -1 0 1990 3 3374 5 3060 6 2004 7 3812 9 3010 11 3394 12 3792
375 0.69795948154293674 1.1373492599455259 2.2417234880304062 127 137 141 -1 1 78 3 72 5 214 9 231 11 83 13 77
5463 -0.92707808672720848 0.31189785615390198 2.0436266950478164 0 0 0 -1 0 1991 3 3375 7 3813 11 3395 12 3793
376 0.40977852269395637 0.90264114944428719 2.2115070774727115 59 87 112 -1 1 79 3 73 4 31 5 215 7 81 8 55 9 232 11 84 12 101 13 78
5464 -0.28308422626812424 1.0745122801025264 1.7552501229942401 40 47 43 -1 0 1992 5 3061 7 3814 9 3011 11 3396 12 3794
377 0.23453245775576509 1.043073660311105 2.019203847459925 101 131 155 -1 4 32 7 82 9 233 11 85 12 102 13 79
5465 -0.26410180342316558 1.0253851063172787 1.7167459662280031 75 97 113 -1 0 1993 5 3062 7 3815 11 3397 12 3795
378 0.44236382337698166 0.40528627336864165 2.6381047108097748 0 0 0 -1 1 80 4 33 5 216 8 56 13 80
5466 -0.49396418639660711 -0.17774436199291341 2.3429041193927858 103 127 148 -1 5 3063 6 2005 7 3816 11 3398
379 0.45073209535684861 0.38037743667878821 2.6699953492811472 0 0 0 -1 1 81 4 34 5 217 8 57 13 81
5467 -0.92712027715927403 0.38606235788193821 2.011109462850746 0 0 0 -1 0 1994 3 3376 7 3817 9 3012 11 3399 12 3796
380 0.55865808997132982 0.96304344515907625 2.2653387582648268 152 161 163 -1 1 82 3 74 5 218 7 83 9 234 11 86 12 103 13 82
5468 -0.41621259251037335 0.78148139240309555 1.7889431530231577 70 95 116 -1 3 3377 5 3064 7 3818 9 3013 11 3400 12 3797
381 0.36913125171672473 1.1915028904111156 1.9978070467367504 56 84 105 -1 1 83 3 75 5 219 7 84 8 58 9 235 11 87 12 104 13 83
5469 -0.66792160427293767 0.69986247313102756 1.9402908511675674 0 0 0 -1 0 1995 3 3378 5 3065 6 2006 7 3819 11 3401 12 3798
382 0.58015448420316462 0.44794797487658983 2.7342738856417284 0 0 0 -1 1 84 5 220 8 59 9 236
5470 -0.46143033056784588 0.17213747410298597 2.1479936384226987 103 130 155 -1 0 1996 2 1449 3 3379 5 3066 6 2007 7 3820 9 3014 11 3402 12 3799
383 0.32356331717967773 0.072581843364762713 2.8077682685672114 0 0 0 -1 2 282 4 35 13 84
5471 0.25649101461577567 0.29511985189016371 2.443914574796048 127 155 178 -1 0 1997 2 1450 3 3380 5 3067 6 2008 7 3821 11 3403 12 3800
384 0.19369506300830142 0.17241545589682797 2.5220021073162662 116 147 177 -1 3 76 5 221 6 78 7 85 9 237 11 88 12 105 13 85
5472 -0.79069727654584743 0.38145760311145815 1.9863638785584465 33 38 34 -1 0 1998 3 3381 5 3068 6 2009 7 3822 9 3015 11 3404 12 3801
385 0.61006255988977109 0.46015453671516121 2.7563793551250071 0 0 0 -1 1 85 8 60 9 238
5473 -0.2753762332864948 1.1254359831191645 1.7809734463516811 21 31 30 -1 0 1999 3 3382 5 3069 7 3823 11 3405 12 3802
386 0.3609393819683207 0.94972026999159964 2.1415160919606797 96 113 124 -1 1 86 3 77 5 222 7 86 8 61 11 89 12 106 13 86
5474 0.23423141486933652 0.070303000510920741 2.5642362294657821 0 0 0 -1 0 2000 2 1451 3 3383 5 3070 6 2010 7 3824 12 3803
387 0.31184470671946274 0.9920296051064289 2.0984907444534651 89 107 119 -1 1 87 3 78 4 36 7 87 8 62 9 239 11 90 12 107 13 87
5475 -0.2955903664292408 1.1639638117339783 1.780758952558894 9 17 17 -1 0 2001 3 3384 5 3071 7 3825 11 3406 12 3804
388 0.50432822074299077 1.2178065575530412 2.1078244058069648 116 137 152 -1 1 88 7 88 8 63 9 240 11 91 12 108 13 88
5476 -0.82413876368115957 0.32743823459996141 2.0094839446191877 32 38 35 -1 3 3385 5 3072 6 2011 9 3016 11 3407 12 3805
389 0.71105413152954 0.97100529719647233 2.3298687342412534 31 46 58 -1 1 89 3 79 7 89 11 92 12 109
5477 -0.32509374234906874 1.0653051252245327 1.7922618575035494 23 30 29 -1 0 2002 3 3386 5 3073 6 2012 7 3826 9 3017 11 3408 12 3806
390 0.61883044776588592 1.0961881582284063 2.2367896661562807 149 155 156 -1 1 90 5 223 7 90 8 64 9 241 11 93 12 110 13 89
5478 -1.0268616253825866 -0.010426513076033655 2.1018055187836215 36 41 35 -1 0 2003 2 1452 6 2013 7 3827 11 3409 12 3807
391 0.45538733895821476 0.4403344117607072 2.6228017479811876 0 0 0 -1 1 91 4 37 5 224 8 65 9 242 13 90
5479 -0.10353434980463001 -0.12293992176001854 2.5121776417477597 112 140 164 -1 0 2004 2 1453 3 3387 5 3074 6 2014 7 3828 9 3018 11 3410 12 3808
392 0.44151165019872574 0.45438640859145185 2.603960396035085 0 0 0 -1 1 92 4 38 5 225 8 66 9 243 13 91
5480 -0.39688711455890341 -0.023994937676481507 2.3057146175395324 103 131 157 -1 2 1454 3 3388 5 3075 6 2015 7 3829 9 3019 11 3411 12 3809
393 0.34077845951186098 0.088731641205203632 2.8069948589604525 0 0 0 -1 2 283 4 39 13 92
5481 -0.00045185092480722706 0.38467610336646835 2.2668276175628042 118 150 178 -1 0 2005 2 1455 3 3389 5 3076 6 2016 7 3830 11 3412 12 3810 13 2607
394 0.34012934547872548 0.98763513642441159 2.1237090943199082 88 89 85 -1 1 93 3 80 4 40 8 67 11 94 13 93
5482 -0.65132106679298252 0.56842977965189523 1.9184553436794514 29 33 30 -1 0 2006 6 2017 7 3831 11 3413 12 3811
395 -0.12716531638700895 1.2491634058118903 1.7470930574756944 56 79 95 -1 1 94 7 91 11 95 12 111
5483 -0.26531935437150678 1.1426229271573412 1.770090628408878 21 30 29 -1 0 2007 3 3390 5 3077 7 3832 11 3414 12 3812
396 0.73870842495668299 1.1043706280337751 2.2593656023702553 128 151 163 -1 1 95 3 81 5 226 9 244 13 94
5484 -0.29918951242879777 1.1439872987129542 1.7789587488029786 11 18 18 -1 0 2008 3 3391 5 3078 7 3833 11 3415 12 3813
397 0.55841045431364511 0.45928055142146101 2.6895714440216674 0 0 0 -1 1 96 5 227 8 68 9 245 13 95
5485 -0.73107799647163019 0.34157290297967047 1.9355359423791603 71 72 60 -1 0 2009 2 1456 3 3392 5 3079 7 3834 11 3416 12 3814
398 0.50003738291642774 0.59490167802647453 2.5328553108332632 4 4 5 -1 1 97 5 228 8 69 9 246 13 96
5486 -0.64457412744456644 0.81081277898698367 1.9200699471836304 0 0 0 -1 0 2010 3 3393 6 2018 11 3417 12 3815
399 0.29713823007513479 1.0546749522440604 2.0496307787843429 54 85 106 -1 1 98 3 82 4 41 6 79 7 92 8 70 11 96 12 112 13 97
5487 -0.14818686181851842 -0.052269963835083151 2.4465274244520208 113 140 163 -1 0 2011 2 1457 6 2019 7 3835 11 3418 12 3816
400 0.41493893291368783 0.43637551945919861 2.6013118432126232 0 0 0 -1 1 99 4 42 8 71 13 98
5488 -0.84141928113474973 0.46878862157778761 2.0024449848955928 0 0 0 -1 0 2012 3 3394 7 3836 9 3020 11 3419 12 3817
401 0.2766324299615367 1.0288008297528886 2.0401557728931938 54 84 111 -1 1 100 3 83 4 43 6 80 8 72 9 247 11 97 13 99
5489 -1.1116613962918442 -0.060253728963876145 2.1535004832947706 0 0 0 -1 0 2013 2 1458 3 3395 7 3837 11 3420 12 3818
402 0.35373792346343685 0.95249319851603209 2.1377492213476716 93 113 126 -1 1 101 3 84 5 229 7 93 8 73 11 98 12 113 13 100
5490 -0.18538040318743856 0.18930562965199182 2.2980907224389866 109 136 159 -1 0 2014 3 3396 5 3080 6 2020 7 3838 9 3021 11 3421 12 3819
403 0.31429818913094831 0.93623860331407927 2.1306840467894883 15 41 64 -1 5 230 7 94 11 99 12 114 13 101
5491 -0.64336359442311108 0.42258251155071236 1.8889980739169518 75 99 117 -1 3 3397 5 3081 6 2021 7 3839 11 3422 12 3820
404 0.43669171396017403 1.2208446003322815 2.0652559960996726 113 144 172 -1 1 102 3 85 7 95 8 74 9 248 11 100 12 115 13 102
5492 -0.7594442318212572 0.41017963138298585 1.9699493894397995 32 37 33 -1 0 2015 3 3398 5 3082 6 2022 7 3840 9 3022 11 3423 12 3821
405 0.52282947253737011 0.4707972083581583 2.6574481187772738 0 0 0 -1 1 103 4 44 5 231 8 75 13 103
5493 0.0091850756662926521 0.49222544782631256 2.2076502165716279 115 140 161 -1 0 2016 3 3399 5 3083 7 3841 9 3023 10 165 11 3424 12 3822
406 0.51093793613438998 0.36431841395445835 2.7119290439813977 0 0 0 -1 1 104 9 249 13 104
5494 -0.076623690862693744 -0.14939865460686289 2.5454707018425604 113 143 168 -1 0 2017 2 1459 3 3400 5 3084 6 2023 7 3842 9 3024 11 3425
407 0.48612800948055929 0.90077844815012909 2.2577887035579827 109 142 172 -1 1 105 3 86 4 45 6 81 7 96 9 250 11 101 13 105
5495 -1.1044927646014608 -0.057661275369051419 2.1503202045447769 0 0 0 -1 0 2018 2 1460 3 3401 7 3843 11 3426 12 3823
408 0.62538384490857424 1.3356076931054173 2.0974156544274143 140 166 184 -1 7 97 12 116 13 106
5496 -0.29536138886782831 1.0562139095746597 1.7634506029812196 33 41 40 -1 0 2019 3 3402 5 3085 7 3844 9 3025 11 3427 12 3824
409 0.44326924196895778 1.151305925582855 2.0930598925000545 29 49 65 -1 1 106 3 87 5 232 7 98 8 76 9 251 11 102 12 117 13 107
5497 -0.92439312690134068 -0.077132677681689715 2.0676715861658819 100 118 136 -1 0 2020 3 3403 7 3845 11 3428 12 3825
410 0.56467609629864768 0.84240224371734451 2.2940466497558893 35 55 70 -1 3 88 5 233 6 82 7 99 9 252 12 118
5498 -0.17030669236183937 -0.048861542369558884 2.4315756421483243 102 133 160 -1 2 1461 3 3404 5 3086 6 2024 7 3846 9 3026 12 3826
411 0.40245604446422728 0.92560887488139343 2.1916495715529174 98 129 158 -1 1 107 3 89 4 46 5 234 7 100 8 77 9 253 11 103 12 119 13 108
5499 -0.85653597593466757 0.32251779198322328 2.0317344220130029 27 30 26 -1 0 2021 3 3405 6 2025 7 3847 9 3027 11 3429 12 3827
412 0.77538076355118091 1.1768478691038862 2.2485708402677922 123 151 169 -1 1 108 7 101 8 78 9 254 12 120 13 109
5500 -0.37834738368176524 0.090661480345024095 2.2387729125424518 106 135 161 -1 2 1462 3 3406 5 3087 6 2026 7 3848 11 3430 12 3828
413 -0.1092738206028909 1.2747955609008099 1.7406701606792647 59 82 98 -1 1 109 7 102 11 104 12 121
5501 0.1536628617235416 0.3412942410635757 2.3748362669024177 128 156 181 -1 0 2022 2 1463 3 3407 5 3088 6 2027 7 3849 11 3431 12 3829
414 0.36209547794865138 1.1147147969209734 2.0637816823717592 118 139 143 -1 1 110 3 90 7 103 8 79 11 105 12 122 13 110
5502 -0.53281174928980835 0.74784168054568734 1.8658264408729597 28 32 30 -1 0 2023 5 3089 6 2028 7 3850 9 3028 11 3432
415 0.46941585578260708 0.34553009681874686 2.708375814256073 0 0 0 -1 1 111 2 284 5 235 8 80 9 255 13 111
5503 -0.70146082542169819 0.68180664917507527 1.9536659174928976 0 0 0 -1 0 2024 3 3408 5 3090 6 2029 9 3029 11 3433 12 3830
416 0.77441492891475483 1.1570349072046044 2.2552327351096308 124 150 167 -1 1 112 7 104 9 256 12 123 13 112
5504 -0.61993801102085688 0.78179144110497678 1.9173264539121089 0 0 0 -1 0 2025 3 3409 5 3091 6 2030 7 3851 9 3030 11 3434 12 3831
417 0.53947198104396987 1.0653638550065909 2.2007648955747969 127 156 180 -1 1 113 3 91 7 105 8 81 9 257 11 106 12 124
5505 -0.49484024618162453 0.76265156046332572 1.8515064924298006 30 41 40 -1 0 2026 3 3410 5 3092 9 3031 11 3435
418 0.40798581649321125 0.40970635176182579 2.6121543947690093 0 0 0 -1 8 82 9 258 13 113
5506 -0.19922729027219274 0.5123486682199303 2.0883055037133049 93 124 150 -1 0 2027 3 3411 4 1096 5 3093 6 2031 7 3852 11 3436 12 3832 13 2608
419 0.35435161131899617 0.11372547382522914 2.8014691454790994 0 0 0 -1 2 285 4 47 13 114
5507 -0.96518689715443318 -0.10167543144838385 2.0693672648953827 98 112 125 -1 0 2028 7 3853 11 3437 12 3833
420 0.4343208432351145 0.95241415249795602 2.1944273775447698 97 127 150 -1 1 114 3 92 4 48 5 236 7 106 8 83 9 259 11 107 12 125 13 115
5508 -0.81315780350794986 0.31147048961973189 1.9986439235946576 31 35 33 -1 0 2029 2 1464 5 3094 6 2032 7 3854 11 3438 12 3834
421 0.56289425261437587 1.1190494345264617 2.1792394405989133 51 71 84 -1 1 115 3 93 5 237 7 107 9 260 11 108 12 126 13 116
5509 -0.93494800060449823 0.25409268599359769 2.0677429525388207 0 0 0 -1 0 2030 3 3412 6 2033 7 3855 11 3439 12 3835
422 0.67949614404935155 1.3565129470979744 2.1205666447499998 56 76 97 -1 5 238 7 108 12 127 13 117
5510 -0.94336260836185226 -0.010815927829795719 2.0126834958545605 128 120 95 -1 6 2034 7 3856 11 3440 12 3836
423 0.85689686109736396 1.2280983771818195 2.3467587573314854 50 69 81 -1 3 94 5 239 7 109 12 128 13 118
5511 -0.78125927258953232 0.27868719464009623 1.9611060140152206 52 57 49 -1 0 2031 2 1465 3 3413 6 2035 7 3857 11 3441 12 3837
424 0.50356555892359478 0.90605788677885535 2.2645814420348942 107 140 170 -1 1 116 3 95 4 49 6 83 7 110 8 84 12 129 13 119
5512 -0.93200040595068612 0.10809085373838796 2.0365318028971147 35 39 34 -1 0 2032 2 1466 6 2036 7 3858 11 3442 12 3838
425 0.63652208953068268 0.94817872098713829 2.3076043129170101 107 125 139 -1 1 117 3 96 6 84 7 111 8 85 9 261 11 109 12 130
5513 -0.41418934158194975 0.86361253886942602 1.8078402966494447 49 54 49 -1 0 2033 3 3414 7 3859 9 3032 11 3443 12 3839
426 0.49615354231193848 1.0240102010115644 2.1827208681037584 128 165 190 -1 1 118 3 97 5 240 8 86 9 262
5514 -1.0007629715131421 0.2502134203585431 2.0584150195367599 0 0 0 -1 0 2034 3 3415 7 3860 11 3444 12 3840
427 0.56031459668587458 0.32681476516825747 2.8089668511133801 0 0 0 -1 1 119 2 286 8 87 9 263
5515 -0.45077325014263575 0.89097731041834571 1.8387647436907901 18 25 24 -1 0 2035 3 3416 5 3095 6 2037 7 3861 9 3033 11 3445 12 3841
428 0.33308391850984848 1.0170138761588468 2.1079053797569145 118 122 119 -1 1 120 3 98 7 112 8 88 9 264 11 110 12 131 13 120
5516 0.23197673922648848 0.15976327570177629 2.5105560926497406 0 0 0 -1 0 2036 2 1467 7 3862 9 3034 11 3446 12 3842
429 0.78430988914699229 1.0957335009070721 2.2914800915324163 35 57 73 -1 1 121 7 113 8 89 12 132 13 121
5517 -0.47097303921301481 0.10379106057795266 2.1871320101721166 102 129 154 -1 0 2037 2 1468 3 3417 5 3096 6 2038 7 3863 11 3447 12 3843
430 0.61779720832203677 0.45037437015183929 2.7737495442685844 0 0 0 -1 1 122 8 90 9 265
5518 0.14747916595117505 -0.045442748365878562 2.5875817019450493 0 0 0 -1 0 2038 2 1469 3 3418 5 3097 6 2039 7 3864 11 3448 12 3844
431 -0.27365520120461684 1.0144441598396032 1.7918736645016282 67 90 111 -1 7 114 11 111 12 133 13 122
5519 -0.6521365910033261 0.74421115370103175 1.9297642056947675 0 0 0 -1 0 2039 3 3419 6 2040 7 3865 9 3035 11 3449 12 3845
432 0.48100597149965785 0.52906161089047976 2.5796877293122495 0 0 1 -1 1 123 4 50 5 241 8 91 13 123
5520 -0.74904016716457866 0.49064023609149876 1.9783152155403947 22 26 23 -1 0 2040 3 3420 5 3098 6 2041 7 3866 11 3450 12 3846
433 0.28661785063066531 0.9523849317844213 2.0983022120400605 108 137 159 -1 1 124 3 99 5 242 7 115 11 112 12 134 13 124
5521 -0.66060988530911369 0.71392335723769129 1.9399394131826218 0 0 0 -1 0 2041 3 3421 5 3099 6 2042 7 3867 11 3451 12 3847
434 0.24359525101262827 1.0191805158593907 2.0324734422594131 92 124 152 -1 1 125 3 100 4 51 5 243 6 85 7 116 11 113 12 135 13 125
5522 -0.80785689210746414 0.28301172268413166 1.9831143701018283 33 38 36 -1 0 2042 2 1470 6 2043 7 3868 11 3452 12 3848
435 0.69532656963894646 1.1941797152442541 2.2091582887870569 123 128 125 -1 1 126 7 117 8 92 9 266 12 136 13 126
5523 -0.4620037904842399 0.83611475980243433 1.8366085254193862 29 35 34 -1 0 2043 3 3422 5 3100 7 3869 9 3036 11 3453 12 3849
436 0.024766252149435602 0.53003560599610144 2.195463104196417 93 128 159 -1 1 127 2 287 3 101 4 52 5 244 6 86 7 118 9 267 11 114 12 137 13 127
5524 -1.0580545330560831 -0.002744755821376758 2.1304969741588526 26 28 24 -1 0 2044 2 1471 3 3423 7 3870 11 3454 12 3850
437 0.29384695483025447 0.33074918550049082 2.4904098811549455 120 158 192 -1 0 59 2 288 3 102 4 53 5 245 6 87 9 268 11 115 13 128
5525 -0.77839955524034676 0.38901630278926053 1.9794573720630917 33 38 34 -1 0 2045 3 3424 5 3101 6 2044 7 3871 9 3037 11 3455 12 3851
438 0.4527559967366826 1.2976871675132475 2.0168474716428668 89 118 141 -1 1 128 3 103 5 246 7 119 8 93 9 269 12 138 13 129
5526 -0.98635977645004769 0.27925397508761002 2.0450656144616683 0 0 0 -1 0 2046 3 3425 7 3872 9 3038 11 3456 12 3852
439 0.3017481459402464 1.063769630812418 2.0541852594997523 73 92 103 -1 1 129 3 104 4 54 6 88 7 120 8 94 11 116 12 139 13 130
5527 -0.97629844163818869 0.13798545515752822 2.083394072282903 4 4 3 -1 0 2047 3 3426 6 2045 7 3873 11 3457 12 3853
440 0.52855782546852847 1.1702666629551735 2.1383651320601937 117 145 165 -1 1 130 5 247 7 121 8 95 9 270 11 117 12 140 13 131
5528 0.22666301919616413 0.15882009724077747 2.5108647749924851 0 0 0 -1 0 2048 2 1472 5 3102 7 3874 9 3039 11 3458 12 3854
441 0.54894245326230262 1.0007974095293322 2.247156407712505 121 152 180 -1 1 131 3 105 7 122 8 96 9 271 11 118 12 141 13 132
5529 -0.096417083090333019 0.50280884129870496 2.1524710252405237 85 114 137 -1 0 2049 1 2597 2 1473 3 3427 5 3103 6 2046 7 3875 9 3040 11 3459 12 3855
442 -0.21590497655243715 1.1076490761829938 1.7763704851967443 52 77 96 -1 1 132 7 123 11 119 12 142
5530 -0.026621107693950503 -0.23014946921948612 2.6083947399416938 0 0 0 -1 0 2050 2 1474 3 3428 5 3104 6 2047 7 3876 9 3041 11 3460 12 3856
443 -0.0051988268726700987 0.47204899720691118 2.2180977396738779 91 125 153 -1 0 60 1 133 3 106 4 55 5 248 6 89 7 124 11 120 12 143 13 133
5531 -1.0564937394545999 -0.071351222814651866 2.1231576226731619 42 46 39 -1 0 2051 2 1475 7 3877 11 3461 12 3857
444 0.76637651048633193 1.156092313086436 2.2476693110373693 155 180 194 -1 1 134 7 125 9 272 12 144
5532 -0.71425689457367847 0.69058870927421023 1.9453233223955779 0 0 0 -1 0 2052 3 3429 7 3878 9 3042 11 3462 12 3858
445 0.51382937578314269 0.4613449707304656 2.6572740484445516 0 0 0 -1 1 135 4 56 5 249 8 97 13 134
5533 -0.17600397538765133 0.11334186718199121 2.3353834461853715 107 135 159 -1 0 2053 3 3430 5 3105 6 2048 7 3879 9 3043 12 3859
446 0.45257195198727651 0.37697452815364396 2.6749315515173424 0 0 0 -1 1 136 4 57 5 250 8 98 13 135
5534 -0.61796872749751941 0.65750503328105814 1.913562843512163 30 34 30 -1 0 2054 5 3106 6 2049 7 3880 9 3044 11 3463 12 3860
447 0.54303017360256778 1.1211337288562178 2.1635779566244189 146 167 183 -1 3 107 5 251 7 126 8 99 11 121 12 145
5535 -1.0302742685447197 -0.17157046136368656 2.0967035500145697 111 107 88 -1 0 2055 6 2050 7 3881 12 3861
448 0.45440754960211044 0.97309703939761583 2.1890378747765316 106 127 141 -1 1 137 4 58 5 252 7 127 8 100 11 122 12 146 13 136
5536 -0.8164105591377222 0.28186659101091888 1.989810715046624 31 36 34 -1 0 2056 2 1476 6 2051 7 3882 11 3464 12 3862
449 -0.05344608823986572 0.59746974925470753 2.1173857442642743 89 121 147 -1 0 61 1 138 3 108 4 59 5 253 7 128 9 273 10 41 11 123 12 147 13 137
5537 0.088966110732179138 -0.17622393048628551 2.6296657174303659 0 0 0 -1 0 2057 3 3431 5 3107 6 2052 7 3883 12 3863
450 0.45846118703933242 0.9044534695862414 2.2414591071330636 89 114 138 -1 3 109 4 60 5 254 7 129 9 274 12 148 13 138
5538 -0.92577932277141151 0.34170517795235639 2.0346227011787135 0 0 0 -1 0 2058 3 3432 7 3884 9 3045 11 3465 12 3864
451 0.33024418345221684 1.0635279257136472 2.0789144993706472 42 46 46 -1 1 139 3 110 4 61 5 255 6 90 7 130 11 124 12 149 13 139
5539 -0.50765721537737807 0.80975161928144557 1.8575684168483266 25 30 28 -1 0 2059 3 3433 5 3108 6 2053 7 3885 9 3046 11 3466 12 3865
452 0.35701777112916255 0.32271949927571597 2.64000556423724 0 0 0 -1 1 140 5 256 13 140
5540 0.023389149309608111 0.52295137401478398 2.1983793189864551 124 151 174 -1 0 2060 3 3434 5 3109 6 2054 7 3886 9 3047 10 166 11 3467 12 3866
453 0.5912465819939452 1.1720855788264333 2.1711230393507552 114 131 140 -1 1 141 3 111 5 257 7 131 8 101 11 125 12 150 13 141
5541 -0.64953847603424786 0.75168810763755012 1.9213042133178093 0 0 0 -1 0 2061 3 3435 7 3887 11 3468 12 3867
454 0.50712958008347842 1.0395742198174607 2.1860808484106715 115 152 177 -1 1 142 3 112 5 258 7 132 8 102 12 151
5542 -0.76147206577762683 0.36493357162651613 1.9690853576301708 35 39 37 -1 0 2062 2 1477 3 3436 5 3110 7 3888 9 3048 11 3469 12 3868
455 0.52911312390019494 0.9363426343567558 2.2572055170143499 164 185 201 -1 6 91 7 133 8 103 11 126 12 152
5543 -0.91661233574546375 0.13908772334731517 2.0252939362186271 34 39 33 -1 0 2063 2 1478 6 2055 7 3889 11 3470 12 3869
456 0.53335973878905585 1.1261744264539768 2.1606449058496136 112 138 156 -1 1 143 5 259 7 134 8 104 9 275 11 127 12 153 13 142
5544 -1.0272377482776764 -0.080979826908770813 2.1030178038031155 45 50 44 -1 0 2064 6 2056 7 3890 11 3471 12 3870
457 0.70040618872786087 0.94315165943282253 2.3657257672781373 33 52 65 -1 1 144 3 113 7 135 11 128 12 154
5545 -0.09494719408553795 0.062156752591572356 2.4073532208099637 111 141 166 -1 2 1479 3 3437 5 3111 6 2057 7 3891 11 3472 12 3871
458 0.74562443637601916 1.0235315603380084 2.3207609788339503 36 65 88 -1 1 145 3 114 7 136 12 155 13 143
5546 -0.080291403124448893 -0.15823354017544011 2.5463443170689621 112 140 164 -1 0 2065 2 1480 3 3438 5 3112 6 2058 7 3892 9 3049 11 3473 12 3872
459 0.45994430977281692 0.43754971967857847 2.632238889621008 0 0 0 -1 1 146 4 62 5 260 8 105 13 144
5547 -0.91597389363451698 0.022662718041783492 1.9988782062580157 126 124 109 -1 3 3439 6 2059 7 3893 11 3474 12 3873
460 0.0079418156673093793 0.48865250393163095 2.2149446595187352 96 128 157 -1 0 62 1 147 3 115 4 63 5 261 6 92 7 137 9 276 11 129 12 156 13 145
5548 -0.35379009714963006 1.1192085841720014 1.8213796014256209 23 27 24 -1 0 2066 3 3440 5 3113 7 3894 9 3050 12 3874
461 0.38170195598188705 1.1992053718757916 2.031717266675082 61 91 113 -1 1 148 3 116 7 138 8 106 9 277 11 130 12 157 13 146
5549 -0.053439605125889737 -0.11112005271726044 2.5346738338585446 112 140 164 -1 0 2067 2 1481 3 3441 5 3114 6 2060 7 3895 9 3051 11 3475 12 3875
462 -0.13252110600132069 0.5630293223628976 2.0953843263485168 89 121 148 -1 0 63 1 149 4 64 5 262 6 93 7 139 9 278 11 131 12 158 13 147
5550 -0.37926597753130564 0.15444526684600968 2.2033224376955021 106 138 169 -1 2 1482 3 3442 5 3115 6 2061 11 3476
463 0.2864291815081455 1.052135403993206 2.0433764576871738 49 88 118 -1 1 150 3 117 4 65 7 140 8 107 11 132 12 159 13 148
5551 -1.0650820788341357 0.016882104707291106 2.1324592758688103 0 0 0 -1 0 2068 2 1483 3 3443 6 2062 7 3896 11 3477 12 3876
464 0.41225079569571405 0.47011574161094216 2.5633891928736947 0 0 1 -1 1 151 4 66 8 108 13 149
5552 -0.083821073964330028 0.3589942868456385 2.2394345877468185 106 138 167 -1 0 2069 2 1484 3 3444 5 3116 6 2063 7 3897 9 3052 11 3478 12 3877 13 2609
465 0.47958813446215581 0.60761715775157621 2.4986776984117665 92 135 174 -1 3 118 5 263 9 279 13 150
5553 -0.95772687860020855 0.11391734977823395 2.0705279337098523 31 37 32 -1 0 2070 2 1485 3 3445 6 2064 7 3898 11 3479 12 3878
466 0.52978955759253921 0.39085082346046462 2.7276261235497099 0 0 0 -1 1 152 2 289 5 264 8 109 9 280
5554 -0.26136117669330772 1.1250029986946113 1.7561776731694763 39 45 40 -1 0 2071 7 3899 9 3053 11 3480 12 3879
467 0.37173714901917593 0.39602081055455129 2.5787123926599786 1 0 0 -1 2 290 8 110 13 151
5555 0.12874699866399897 0.18028498768812604 2.4584269825934473 118 147 171 -1 0 2072 2 1486 3 3446 5 3117 6 2065 7 3900 11 3481 12 3880
468 0.34874794725123037 0.83687541199013005 2.2134258589961679 92 129 163 -1 1 153 3 119 4 67 5 265 7 141 9 281 12 160 13 152
5556 0.35183276657516904 0.4489334024478614 2.4010718504182149 131 160 183 -1 0 2073 3 3447 5 3118 6 2066 7 3901 9 3054 11 3482 12 3881
469 0.48929146773204996 0.33136988586840688 2.7337284209485979 0 0 0 -1 2 291 8 111 9 282 13 153
5557 -0.82477302514529405 0.25425488324853424 1.9849980277312378 32 38 36 -1 0 2074 2 1487 6 2067 7 3902 11 3483 12 3882
470 0.79390986766832372 1.2528072032590496 2.2264140673490931 109 138 152 -1 5 266 7 142 12 161 13 154
5558 -0.69911131111182778 0.65770996663392167 1.9534844318983662 0 0 0 -1 0 2075 3 3448 5 3119 7 3903 9 3055 10 167 11 3484 12 3883
471 0.51904799965651638 1.4319652931008728 1.9966814609864587 64 92 119 -1 5 267 9 283 11 133
5559 -0.6330899016072562 0.81019396933988908 1.9180984387041951 0 0 0 -1 0 2076 3 3449 6 2068 9 3056 11 3485 12 3884
472 0.35014142018777789 0.30539688369639273 2.6358987624827686 0 0 0 -1 1 154 2 292 5 268 9 284 13 155
5560 -0.67673676828340013 0.60701125768709974 1.9442372971977919 21 23 22 -1 0 2077 3 3450 5 3120 6 2069 7 3904 9 3057 11 3486 12 3885
473 0.44821266419627886 0.34703475862912203 2.6881074776551603 0 0 0 -1 1 155 8 112 9 285 13 156
5561 0.099384502227048574 -0.17126216673200695 2.6347286488936956 0 0 0 -1 0 2078 2 1488 3 3451 5 3121 6 2070 7 3905 11 3487 12 3886
474 0.52805096491692449 1.274354960326 2.0897338385310658 234 227 208 -1 1 156 7 143 11 134 12 162 13 157
5562 -0.76005593521648485 0.38941005618777536 1.9694074113235271 28 34 31 -1 3 3452 6 2071 7 3906 11 3488 12 3887
475 0.44300594822944606 1.1012708141511012 2.1337313260879549 98 102 103 -1 1 157 3 120 5 269 7 144 8 113 11 135 12 163 13 158
5563 -0.82418266201504831 0.17535512514051008 1.9558363062046569 88 90 80 -1 0 2079 2 1489 3 3453 6 2072 7 3907 11 3489 12 3888
476 0.4681737812994608 0.80956351403729887 2.2767913472896395 105 138 167 -1 1 158 3 121 4 68 5 270 7 145 9 286 11 136 12 164
5564 -0.076948999477952806 -0.0089785672996958339 2.453112347237739 116 145 168 -1 0 2080 2 1490 3 3454 5 3122 6 2073 7 3908 11 3490 12 3889
477 0.55015189670481057 0.40150389539971409 2.7453475324030765 0 0 0 -1 1 159 5 271 8 114
5565 -0.90516767770565343 0.12108450113109903 2.0083099900263193 30 38 36 -1 0 2081 2 1491 3 3455 6 2074 11 3491 12 3890
478 0.82800902904967855 1.2346166359560169 2.269044771816124 80 117 152 -1 1 160 5 272 7 146 12 165 13 159
5566 -0.65356471867749644 0.76759263297904956 1.9207750537735739 0 0 0 -1 0 2082 3 3456 7 3909 11 3492 12 3891
479 0.56511764674024068 1.0309812998147083 2.2342390922017499 124 155 183 -1 1 161 3 122 5 273 7 147 8 115 9 287 11 137 12 166 13 160
5567 -0.25783960385241511 1.1702860586703212 1.7647767825268554 19 27 26 -1 0 2083 3 3457 5 3123 7 3910 11 3493 12 3892
480 0.43898109737643037 1.2328128898046464 2.0562676340630204 116 148 177 -1 1 162 3 123 5 274 7 148 8 116 9 288 11 138 12 167 13 161
5568 -0.29847864685381992 1.0656711109596144 1.7822961497176941 34 42 39 -1 0 2084 5 3124 6 2075 7 3911 9 3058 11 3494 12 3893
481 0.54338002970771193 0.44411787088080951 2.6869389139698905 0 0 0 -1 1 163 8 117 9 289 13 162
5569 -0.92412481436256722 0.21963067379335574 2.0589653739276916 7 8 6 -1 0 2085 3 3458 6 2076 7 3912 11 3495 12 3894
482 0.50447693421686024 0.95566026092762135 2.2472543228942947 106 141 174 -1 1 164 3 124 6 94 8 118 11 139 13 163
5570 -0.74371022503670925 0.44509561001874753 1.9640953765923774 34 38 33 -1 0 2086 5 3125 6 2077 7 3913 9 3059 11 3496 12 3895
483 0.33615064348726426 1.0331631974184916 2.1070512822943899 85 86 83 -1 1 165 3 125 8 119 9 290 11 140 13 164
5571 -0.030964544214422317 -0.012372731881185197 2.4820303812308699 114 143 167 -1 0 2087 2 1492 3 3459 5 3126 6 2078 7 3914 9 3060 11 3497 12 3896
484 0.41320163458694714 0.44043589584531168 2.5932492381514241 0 0 0 -1 1 166 4 69 8 120 13 165
5572 -1.0370666006925058 0.063011413620658388 2.1122067571329204 0 0 0 -1 0 2088 3 3460 6 2079 7 3915 11 3498 12 3897
485 0.29482224566142723 1.0765103472204087 2.0211556800206965 66 96 121 -1 1 167 3 126 4 70 7 149 8 121 9 291 12 168 13 166
5573 0.23308023077867054 0.16591258843462187 2.512089023110168 0 0 0 -1 0 2089 2 1493 7 3916 9 3061 11 3499 12 3898
486 0.57954412756629425 0.33526136432267667 2.8233050323944133 0 0 0 -1 1 168 2 293 8 122 9 292
5574 -0.78579642136025352 0.33464231949403278 1.979192638152051 34 39 37 -1 0 2090 2 1494 3 3461 5 3127 7 3917 9 3062 11 3500 12 3899
487 0.46809728459908739 0.37731407500156827 2.6834939904264741 0 0 0 -1 1 169 8 123 13 167
5575 -0.43323926361274551 0.99624458263129367 1.8475701007073997 15 17 13 -1 0 2091 3 3462 5 3128 7 3918 11 3501 12 3900
488 0.45716724320109481 0.53177443156961812 2.5567228624095004 0 0 0 -1 1 170 4 71 8 124 13 168
5576 -0.59475523946387132 0.7938527815006432 1.9092553012336331 0 0 0 -1 0 2092 3 3463 5 3129 6 2080 7 3919 9 3063 11 3502 12 3901
489 0.43534295570430637 0.87582960758485962 2.232200094321521 24 50 76 -1 1 171 3 127 4 72 5 275 7 150 8 125 9 293 11 141 12 169
5577 -0.75662251632270816 0.32346201899567301 1.9566473555402648 47 52 46 -1 0 2093 2 1495 3 3464 5 3130 7 3920 11 3503 12 3902
490 0.39147062547182954 1.2166603815880799 2.0280168497474591 36 67 88 -1 1 172 3 128 7 151 8 126 11 142 12 170 13 169
5578 -0.98885434131136396 0.14227743260120693 2.089404411774495 0 0 0 -1 0 2094 3 3465 6 2081 7 3921 11 3504 12 3903
491 0.47112420842155173 0.52258732695849996 2.5781810155695055 0 0 0 -1 1 173 4 73 5 276 8 127 13 170
5579 -0.76412310232313774 0.31857782832979775 1.9613677039698669 39 47 42 -1 3 3466 5 3131 6 2082 7 3922 11 3505 12 3904
492 0.66694527805883663 1.1212379120363856 2.2320637378875463 160 172 175 -1 1 174 5 277 7 152 9 294 11 143 12 171 13 171
5580 -0.27480991158810386 1.1382414412875976 1.7780738883261937 21 30 30 -1 0 2095 3 3467 5 3132 7 3923 11 3506 12 3905
493 0.49222155673103068 1.0552227025416099 2.1630468849430873 112 118 119 -1 1 175 5 278 6 95 7 153 8 128 9 295 11 144 12 172 13 172
5581 0.22353308577016129 0.13118106790082804 2.5225125054782835 0 0 0 -1 0 2096 2 1496 7 3924 9 3064 11 3507 12 3906
494 0.52865721751628802 0.64976318970503744 2.5056679196591376 24 30 38 -1 1 176 5 279 8 129 9 296 13 173
5582 -0.068076472975076713 -0.078579803166449358 2.5072855442540636 113 142 165 -1 0 2097 2 1497 3 3468 5 3133 6 2083 7 3925 9 3065 11 3508 12 3907
495 0.44627515916844196 0.96740321618367209 2.1883587398342415 113 139 157 -1 1 177 3 129 4 74 5 280 6 96 7 154 8 130 11 145 12 173 13 174
5583 -0.032237669862570671 0.2512902446608975 2.3394156981891276 111 140 165 -1 0 2098 2 1498 3 3469 5 3134 6 2084 7 3926 9 3066 11 3509 12 3908
496 0.35659184603185867 1.0097575510605739 2.1309378041137941 52 55 54 -1 1 178 3 130 4 75 8 131 9 297
5584 -0.99897498890265624 0.27978708235198108 2.0486371604354048 0 0 0 -1 0 2099 3 3470 9 3067 11 3510
497 0.58425445933797315 0.36051373007992016 2.8086026631391885 0 0 0 -1 1 179 2 294 8 132 9 298
5585 -0.86266340672856046 0.27292199970901188 2.0247776486288509 36 40 35 -1 0 2100 6 2085 7 3927 11 3511 12 3909
498 0.37879109009342748 1.0578781086516162 2.1151180070854561 90 94 88 -1 1 180 3 131 4 76 6 97 8 133 12 174 13 175
5586 -0.21506676536869304 -0.19834155125805797 2.4980139437307716 111 139 162 -1 0 2101 2 1499 3 3471 6 2086 7 3928 9 3068 11 3512 12 3910
499 0.54436169939749746 1.0423444635724839 2.2221889139618876 121 153 181 -1 1 181 3 132 5 281 7 155 8 134 9 299 11 146 12 175 13 176
5587 -0.34357449928579664 -0.10411812973840175 2.3823838015028254 100 129 155 -1 2 1500 3 3472 5 3135 6 2087 7 3929 9 3069 11 3513 12 3911
500 0.56214250950588651 0.38474212266001617 2.7678580700438569 0 0 0 -1 1 182 2 295 8 135 9 300
5588 -0.50478914690745724 0.73034192937267017 1.8492409343623577 25 36 37 -1 0 2102 3 3473 5 3136 11 3514
501 0.70019868713766431 1.2194281610343849 2.1945618706867864 134 141 139 -1 1 183 5 282 7 156 8 136 9 301 12 176 13 177
5589 -0.37482741089162153 0.84790906841481783 1.7667286701778102 69 95 115 -1 3 3474 7 3930 9 3070 11 3515 12 3912
502 0.7640928712814482 1.3212932568083116 2.1863667165784464 46 68 90 -1 5 283 7 157 9 302 12 177 13 178
5590 0.21984617589054581 0.33734969526862829 2.4122714837598171 126 154 178 -1 0 2103 2 1501 3 3475 5 3137 6 2088 7 3931 9 3071 11 3516 12 3913
503 0.29468982241422786 0.96624036948286662 2.0963422364762172 36 59 78 -1 1 184 3 133 4 77 5 284 11 147 13 179
5591 -0.025678222528381763 -0.15541762948937302 2.5752205812518483 122 147 169 -1 0 2104 2 1502 3 3476 5 3138 6 2089 7 3932 9 3072 11 3517 12 3914
504 0.6106774949004462 1.2105823616346481 2.1514302529027214 97 116 127 -1 1 185 3 134 5 285 7 158 9 303 11 148 12 178 13 180
5592 -1.0759364230325545 -0.012356807813020995 2.1379373571332962 1 1 1 -1 0 2105 2 1503 3 3477 7 3933 11 3518 12 3915
505 0.49770592296937183 0.44998595378979805 2.6518997248010248 0 0 0 -1 1 186 4 78 5 286 8 137 13 181
5593 -0.21241835657871005 -0.25242069093517017 2.5367940859010814 112 140 165 -1 0 2106 2 1504 3 3478 5 3139 6 2090 9 3073 11 3519 12 3916
506 -0.023773272300295852 0.57391151280767561 2.1460470303132566 73 105 132 -1 1 187 3 135 4 79 5 287 6 98 7 159 9 304 10 42 11 149 12 179 13 182
5594 -0.93276280518975352 0.12197415320061267 2.0376686752874682 32 37 34 -1 0 2107 2 1505 3 3479 6 2091 7 3934 11 3520 12 3917
507 0.34965962091984881 0.41649641684127925 2.4712872543028421 112 153 195 -1 3 136 4 80 5 288 6 99 9 305 13 183
5595 -0.16670010538600311 -0.25112501449398683 2.5578504672128592 110 136 159 -1 0 2108 2 1506 5 3140 6 2092 7 3935 9 3074 11 3521 12 3918
508 0.49719579113560247 0.5395636943343739 2.5808191104912535 0 0 0 -1 1 188 4 81 5 289 8 138 13 184
5596 -0.9841376295856521 0.16961790972503515 2.0905743907051906 0 0 0 -1 3 3480 6 2093 7 3936 11 3522 12 3919
509 0.51681342922832108 0.47189631674930349 2.6543338815882418 0 0 0 -1 1 189 4 82 5 290 8 139 13 185
5597 -0.80144535320392507 0.33382557038830657 1.9828400460924178 34 39 36 -1 0 2109 3 3481 5 3141 6 2094 7 3937 9 3075 11 3523 12 3920
510 0.27438810781555673 1.0194992427425769 2.0444783076473083 76 104 126 -1 1 190 3 137 4 83 7 160 8 140 9 306 11 150 12 180 13 186
5598 -0.76117318340228002 0.59764034140913269 1.9700166947646254 0 0 0 -1 0 2110 3 3482 5 3142 7 3938 9 3076 12 3921
511 0.52415219803393931 0.88905328148434537 2.2770882560115306 90 122 153 -1 1 191 3 138 4 84 5 291 6 100 8 141 9 307 13 187
5599 -0.42423521517838486 -0.063860347159862191 2.3069814550367012 103 130 156 -1 0 2111 2 1507 3 3483 5 3143 6 2095 7 3939 11 3524 12 3922
512 0.41536487517190901 0.85755992157003702 2.2169545996215425 84 117 144 -1 3 139 4 85 5 292 7 161 9 308 12 181 13 188
5600 -0.20204890463868699 -0.25587098742030989 2.5436686046835311 113 142 168 -1 0 2112 2 1508 3 3484 5 3144 6 2096 9 3077 11 3525
513 0.50820744017906339 0.99504485969369239 2.2162769568494771 121 153 181 -1 1 192 3 140 5 293 6 101 7 162 9 309 11 151 12 182 13 189
5601 0.06261945323176997 0.087638956254773054 2.4758681558634721 118 146 170 -1 0 2113 2 1509 3 3485 5 3145 6 2097 7 3940 9 3078 11 3526 12 3923
514 0.31646638673811356 1.0420244690040898 2.079738089364497 54 60 55 -1 1 193 3 141 4 86 5 294 6 102 7 163 8 142 11 152 12 183 13 190
5602 0.16362247348711506 0.047360883444071529 2.5421278217961873 0 0 0 -1 0 2114 2 1510 3 3486 5 3146 7 3941 9 3079 11 3527 12 3924
515 0.4779917818331802 1.1889398453881661 2.1044072175309059 114 145 173 -1 1 194 3 142 7 164 8 143 9 310 11 153 12 184 13 191
5603 -0.43271000660287173 0.034530648652384047 2.2470977386791344 107 135 160 -1 0 2115 2 1511 3 3487 5 3147 6 2098 7 3942 11 3528 12 3925
516 0.014255672216615296 0.49985393171375841 2.2100948785058714 90 124 153 -1 1 195 2 296 3 143 4 87 5 295 6 103 7 165 9 311 11 154 12 185 13 192
5604 -0.82078538940071022 0.42899518450190127 2.0175219713417447 0 0 0 -1 0 2116 3 3488 5 3148 6 2099 7 3943 11 3529 12 3926
517 0.21918860618629463 0.11074119356222438 2.6858787627733172 0 0 1 -1 1 196 3 144 4 88 13 193
5605 -0.4992840746379994 -0.056652565730784213 2.2749209548130751 101 128 153 -1 2 1512 5 3149 6 2100 7 3944 11 3530 12 3927
518 0.35661939836634698 1.2176347505077307 1.9801580665646903 63 79 89 -1 1 197 3 145 7 166 9 312 11 155 12 186
5606 0.12638811409669728 -0.085640323858197684 2.6013033864672317 0 0 0 -1 0 2117 2 1513 3 3489 5 3150 6 2101 7 3945 11 3531 12 3928
519 0.4137017887450502 0.76604661935602525 2.2876966683178113 88 126 159 -1 1 198 3 146 4 89 5 296 6 104 9 313 11 156 13 194
