# 3D point list with one line of data per point:
#   POINT3D_ID, X, Y, Z, R, G, B, ERROR, TRACK[] as (IMAGE_ID, POINT2D_IDX)
# Number of points: 428, mean track length: 4.7415881561238225
1931 4.1099532743960046 0.1511878648812926 2.6240431418460779 215 173 131 -1 7 552 8 640 9 780 13 351 15 239
1932 3.368419063489525 0.65310532738988869 2.1450041834253937 150 70 57 -1 7 553 8 641 9 781
1933 3.1722489408136365 -0.087423028014933013 2.8504137939484702 217 157 144 -1 7 554 8 642 13 352 14 258 15 240
1934 0.34082312852077229 1.1925641306518633 1.7667617019914628 52 64 70 -1 1 291 4 338 8 643 14 259
1935 4.0675857326286762 0.14410980917594943 2.6411575225915551 236 199 160 -1 7 555 8 644 9 782 13 353 15 241
1936 3.9534639912035332 -0.45255027671439663 3.4116307923334994 159 149 129 -1 8 645 9 783 15 242
1937 0.39015841131403128 1.3363821079740432 1.6792161920272888 94 105 113 -1 6 291 13 354 14 260
1938 0.29562418092925596 0.43054187510120306 0.87676175837146586 86 212 246 -1 0 853 11 266 13 355 14 261 16 911
1939 1.7009416204038375 0.77963028233609766 2.5211143773973759 146 134 115 -1 8 646 9 784 14 262 15 243
1940 0.32780920529438629 1.1731168600117232 1.7934451722106375 70 69 64 -1 1 292 2 314 8 647
1941 1.1266609363489781 0.86352549195470396 2.2534573118012471 93 79 60 -1 11 267 13 356 14 263
1942 0.28128285449651702 0.52332899406771594 1.0084245953338191 61 149 189 -1 11 268 13 357 16 912
1943 4.40982222523545 -0.67069912262819065 3.5094691944919121 152 131 107 -1 13 358 14 264 15 244
1944 1.6136824619363874 0.71269117395183601 2.5739119643950747 124 111 93 -1 0 854 7 556 8 648 10 859 11 269 13 359 14 265 15 245 18 781
1945 0.2938055597743594 0.42841891823297629 0.87819791635192146 87 213 247 -1 0 855 11 270 13 360 14 266 16 913
1946 1.5984283929381604 0.59673233809359438 2.4925231841152677 156 143 124 -1 0 856 7 557 8 649 10 860 11 271 13 361 14 267 15 246
1947 0.35849725014334494 0.36936060842806179 0.93918199060244523 104 139 153 -1 4 339 5 262 8 650 13 362 17 719
1948 0.27968191398793685 0.54009373990000775 1.0086955527720127 69 149 200 -1 14 268 17 720 18 782
1949 1.7128674715832992 0.81383175945187303 2.5616093123795394 128 116 97 -1 8 651 9 785 13 363 15 247
1950 1.6578548356484606 0.5876143468514059 2.4346709146972292 149 134 113 -1 8 652 9 786 13 364 15 248
1951 1.3528148525711865 0.56079906658139356 2.8381654393100919 125 111 91 -1 7 558 8 653 10 861 13 365 14 269 15 249
1952 1.6266160447002633 0.62961104623444086 2.4729090160132765 125 114 97 -1 0 857 7 559 8 654 9 787 10 862 11 272 13 366 14 270 15 250
1953 1.328104592513057 0.44500197951041343 2.7594814379775947 156 143 122 -1 0 858 7 560 8 655 10 863 11 273 13 367 14 271 15 251 17 721 18 783
1954 1.4685249549536981 0.50587144110892823 2.6202208297535958 165 151 131 -1 7 561 8 656 15 252 18 784
1955 3.4007072540790895 0.70145518882059554 2.1012156631841048 193 95 85 -1 7 562 8 657 9 788
1956 3.6838673093521486 0.22720942065981442 2.5475991527699451 199 178 170 -1 7 563 8 658 9 789 15 253
1957 1.3415184641380162 0.34814003546388189 2.7041171645890798 157 159 148 -1 0 859 7 564 8 659 9 790 10 864 11 274 15 254 16 914 17 722 18 785
1958 0.28026119105444308 0.47730805228143469 0.98249658445163257 56 142 193 -1 0 860 5 263 14 272
1959 0.28923150751445376 0.4387660636878366 0.87055669096103983 30 196 246 -1 0 861 1 293 7 565 9 791 13 368 14 273 16 915
1960 1.302358646369048 0.52984729829862387 2.8245380225301973 132 120 101 -1 7 566 8 660 13 369
1961 2.427930136341014 1.6350126063227328 2.1826966122417915 102 84 63 -1 9 792 13 370 14 274
1962 3.4779635538198646 0.71894703968254225 2.050153677914119 239 210 63 -1 7 567 8 661 9 793 13 371
1963 0.29028798796870631 0.44365050331401212 0.86490139827614332 49 195 244 -1 4 340 7 568 8 662 13 372 16 916
1964 0.3071174221355461 0.42285207256046708 0.88602134728128901 25 203 248 -1 1 294 9 794 10 865 16 917 17 723 18 786
1965 3.3313318539947305 0.6610166663020911 2.1074145477142339 206 104 94 -1 7 569 8 663 9 795
1966 4.2172560325071524 -0.53515212321935679 3.4878439126007672 178 159 132 -1 8 664 13 373 15 255
1967 4.4385491427877559 -0.35000612021989735 3.1449584785686091 135 121 100 -1 8 665 14 275 15 256
1968 0.28818459453399725 0.54359794681250073 1.0739379166609173 34 133 186 -1 6 292 10 866 13 374
1969 0.30992706742696241 1.1336920894147255 1.8319072489789652 64 61 55 -1 1 295 2 315 14 276
1970 0.31825616342744839 1.1403267081567374 1.8232749451092463 69 68 64 -1 1 296 2 316 8 666
1971 0.28526611850436984 0.42477497868421815 0.88414116366020867 41 199 245 -1 0 862 8 667 9 796 13 375 14 277
1972 0.34464084231144693 0.42747476213314006 0.8797933142345763 38 194 243 -1 1 297 2 317 3 327 4 341 8 668 9 797 10 867 12 77
2103 0.34952825608700822 0.42782207334514338 0.88533847973899182 19 197 245 -1 2 329 7 634 8 760 10 894 11 301 16 942 17 747
2104 2.4844199314139659 1.8978958520604843 2.2920969351624718 174 159 140 -1 8 761 9 857 13 472
2105 0.27765200051186001 0.45216266830042456 0.9619420916792838 86 158 203 -1 0 889 13 473 16 943 18 799
2106 0.32377149017270584 0.42307331331876286 0.88787378077340573 24 202 250 -1 1 314 2 330 6 302 10 895 18 800
2107 2.6912178223953589 1.7856729677141494 1.8038366347879569 129 111 91 -1 8 762 13 474 14 339
2108 0.36129701751989857 0.41952004895129413 0.90014022141791705 48 196 247 -1 1 315 6 303 7 635 12 90 13 475 16 944 17 748 18 801
2109 1.2963120512071993 0.4176222635318112 2.7414135990685171 96 124 129 -1 8 763 9 858 11 302 13 476
2110 2.4897677148611268 1.6838399610711681 2.1961643439776899 94 78 56 -1 9 859 13 477 14 340
2111 0.28534880848862409 0.42865672469670085 0.87975809322111798 43 198 245 -1 0 890 7 636 9 860 13 478 14 341 16 945
2112 3.0599419457501589 -0.16305304082849145 2.9111278518623096 232 135 109 -1 8 764 13 479 14 342 15 307
2113 1.9668092681382252 0.54989667373340323 2.4498094000993382 189 171 146 -1 8 765 13 480 15 308
2114 0.88613766949777573 0.72839901077520686 2.3232833062093086 86 74 61 -1 1 316 6 304 13 481
2115 0.28135489741724484 0.53605212457480056 1.0415224177652309 41 105 149 -1 2 331 13 482 17 749
2116 3.3081311756955345 -0.094935832264320522 2.8564646217747449 247 163 125 -1 7 637 13 483 14 343 15 309
2117 3.2237143720254666 0.21269402984801536 2.5878080559867391 208 129 91 -1 7 638 8 766 9 861 13 484 14 344 15 310
2118 0.29853503818805222 1.1101103850100491 1.8623257884013136 67 61 52 -1 1 317 8 767 14 345
2119 0.27649022380560184 0.46586093878467422 0.94799679351663402 96 183 238 -1 0 891 10 896 16 946 17 750 18 802
2120 3.8658345095893942 0.54124723656551721 2.2420199804509808 243 213 182 -1 7 639 8 768 9 862 13 485
2121 0.29214864910262983 0.41713404610122501 0.95760669165705714 33 123 167 -1 0 892 5 270 13 486 14 346
2122 4.1722129632474081 -0.1792633803864738 2.9748369312579284 199 182 151 -1 8 769 9 863 14 347
2123 3.8269430977433081 0.42468278320176578 2.3481098205369215 238 226 171 -1 7 640 8 770 9 864 13 487
2124 1.6404031299491639 0.62023173523189967 2.4620918175881492 158 145 125 -1 7 641 8 771 10 897 11 303 13 488 14 348 15 311
2125 0.3880618355976182 0.427949726110816 0.87865640968366543 133 157 164 -1 1 318 5 271 9 865 10 898 11 304 13 489
2126 0.99917989793797746 0.80929400448972078 2.1371803448838937 72 58 41 -1 7 642 13 490 14 349
2127 0.30462386483932402 0.43820255505180589 0.86893599147300671 65 213 250 -1 0 893 8 772 9 866 10 899 11 305 13 491 14 350 16 947
2128 0.30817001352845746 1.1294831943444588 1.8368634688596042 69 68 63 -1 1 319 2 332 8 773
2129 2.602057454157868 1.8035484313518111 1.9800131310202689 103 86 63 -1 9 867 13 492 14 351 15 312
2130 0.33360033193059008 0.3894739681277895 0.92291224284853146 47 207 246 -1 2 333 7 643 13 493 16 948 18 803
2131 2.8050338215876054 1.9426083115649406 1.9828536039034115 112 96 73 -1 8 774 14 352 15 313
2132 2.6136424522945925 0.26668054276522707 2.6731389955143747 160 146 122 -1 7 644 14 353 15 314
2133 4.160488658316587 -0.37273530688186102 3.2467960930411861 187 159 129 -1 9 868 13 494 15 315
2134 0.35716343018468949 0.40540334864817329 0.91228646581887229 26 202 251 -1 1 320 6 305 8 775 9 869 13 495 14 354 16 949
2135 0.28117657986530831 0.55406571844034924 1.064195270481596 74 141 186 -1 13 496 16 950 17 751
2136 0.29205961363051897 1.0976787650407984 1.8708021659279135 68 64 57 -1 1 321 2 334 8 776 15 316
2137 3.393620920007264 0.043544746935221201 2.7455357371119558 252 165 110 -1 7 645 8 777 13 497 14 355
2138 3.7337745554455597 0.40079292098584324 2.3769402743256123 238 202 64 -1 8 778 9 870 13 498
2139 3.7916651220507664 -0.21543792896876787 3.0068573777831618 217 190 165 -1 7 646 8 779 9 871 13 499 14 356 15 317
2140 2.3556972097000788 1.3692132331749709 1.8655878801024748 142 130 113 -1 8 780 9 872 15 318
2141 0.36967964551026716 0.43563693536308939 0.87222479746003923 78 213 249 -1 0 894 3 342 6 306 8 781 9 873 11 306 14 357 16 951 17 752 18 804
2142 1.5584091783940246 0.56997256292481857 2.5090651187069168 141 127 107 -1 7 647 8 782 9 874 13 500 14 358 15 319
2143 3.7221661152850669 0.36680891412899058 2.3934279509011827 248 237 121 -1 7 648 8 783 9 875 15 320
2144 0.3887028858938924 0.39472053088310766 0.91042132799146447 139 166 169 -1 0 895 6 307 8 784 9 876 10 900 12 91 13 501
2145 2.8039539318027193 1.9300104530351532 1.8436839874282336 120 102 81 -1 8 785 13 502 14 359
2146 3.7928014129051744 0.025765060505838294 2.7780430648887795 205 163 130 -1 7 649 8 786 9 877 13 503 14 360 15 321
2147 0.27860360503892595 0.55947649035350622 1.0295751492277265 38 102 140 -1 13 504 14 361 15 322 16 952
2148 0.28389467512733402 0.40344312648865976 0.90498486204232709 63 198 244 -1 4 360 8 787 13 505 14 362 16 953 17 753
2149 0.83572676265017976 0.68574600291711685 2.3478134647361251 110 99 85 -1 1 322 6 308 13 506
2150 0.28195085322737579 0.56030878403404094 1.0624489658891194 65 149 198 -1 0 896 13 507 16 954 17 754
2151 3.7241969972309183 -0.29344561070177394 3.1146993580745148 198 159 131 -1 8 788 9 878 14 363 15 323
2152 3.4066263066150002 0.83020701023681032 1.9461226530586662 170 113 111 -1 7 650 8 789 9 879 15 324
2153 1.5662904796661319 0.59847570203644573 2.5145066632652591 143 130 111 -1 0 897 7 651 8 790 10 901 11 307 13 508 14 364 15 325 18 805
2154 3.3870113877582986 0.51593654429544911 2.2638382290235892 253 142 114 -1 7 652 8 791 9 880
2155 1.7181406249357958 0.66153415344586897 2.4313098987580979 143 131 110 -1 8 792 9 881 11 308 13 509 14 365 15 326
2156 1.5384359000410586 0.67727978075247386 2.6469446970350488 114 102 84 -1 7 653 8 793 10 902 11 309 13 510 14 366 15 327
2157 0.28221524294214456 0.42342419712019203 0.8873059576815947 48 175 231 -1 3 343 4 361 9 882 11 310 13 511 14 367 16 955
2158 4.0481633597604052 0.0078128972519445877 2.7819960253299345 156 143 162 -1 7 654 8 794 9 883 14 368 15 328
2159 0.39064136476352462 0.41268463976981806 0.89100190701550697 109 182 201 -1 0 898 1 323 10 903 12 92 13 512
2160 0.31702847795120498 1.1516449411114538 1.8158105971494412 69 66 59 -1 1 324 2 335 8 795 15 329
2161 3.9154890620751246 0.68276835375905975 2.1049635015321568 179 144 139 -1 7 655 8 796 13 513 15 330
2162 1.764756162407991 0.6041316834196353 2.4212129250995087 181 169 148 -1 0 899 7 656 8 797 10 904 11 311 13 514 14 369 15 331
2163 3.5044187441525345 -0.18231421879812745 2.9581599097285012 167 118 91 -1 7 657 8 798 9 884 13 515 15 332
2164 3.6972447040441017 -0.16322213538110875 2.9548571330910129 228 177 141 -1 7 658 8 799 9 885 13 516 14 370 15 333
2165 1.8401963480526455 0.64189220280954684 2.4291308081710108 184 171 149 -1 8 800 9 886 14 371 15 334
2166 1.3742034950705491 0.36083365292103259 2.675592996554446 176 163 141 -1 0 900 7 659 8 801 10 905 11 312 13 517 14 372 15 335 18 806
2167 3.8784785519957774 -0.20779086117147727 2.9943801861556225 216 174 141 -1 7 660 8 802 9 887 13 518 14 373 15 336
2168 0.34881090869511927 0.47574380385133724 0.84071834026983039 58 180 232 -1 2 336 3 344 4 362 8 803 12 93 13 519
2169 1.708844445721474 0.66466359705929012 2.4421708874828059 138 125 105 -1 7 661 8 804 11 313 13 520 14 374 15 337
2170 1.3763497654305732 0.38573118545403695 2.6740735395184347 154 152 138 -1 0 901 7 662 8 805 9 888 10 906 11 314 14 375 15 338 16 956 17 755 18 807
2201 0.28983427010841833 0.44801020765929739 0.86412081233193738 37 177 237 -1 3 348 7 682 8 831 9 904 12 98 14 391 16 958
2202 2.0528380769309038 0.51060488835714801 2.4785800545610495 195 176 152 -1 7 683 13 539 15 354
2203 2.4335508792646072 1.1673799042966337 1.8311398440860631 178 164 141 -1 7 684 8 832 9 905 13 540 14 392
2204 0.28848794529751975 0.43631921482826458 0.87371321073015962 32 196 246 -1 0 908 7 685 10 913 13 541 14 393 16 959
2205 3.9365441272555528 0.73032561856927847 2.0523284970541797 248 194 164 -1 7 686 8 833 13 542
2206 1.6600345797073832 0.61768855731025984 2.4590644637480481 156 142 118 -1 8 834 11 322 13 543 14 394 15 355
2207 0.29969636508687253 0.44210122996128753 0.98899057561192949 23 84 122 -1 5 272 13 544 14 395
2208 4.641889871973591 -0.1447125008381257 2.9390549809731645 148 141 129 -1 7 687 8 835 9 906
2209 1.6886931204471454 0.64067777823107097 2.4302683667608944 166 158 138 -1 7 688 8 836 9 907 11 323 14 396
2210 3.7876850129595776 0.42138014384720246 2.3547998567166992 252 231 130 -1 7 689 8 837 9 908 13 545
2211 0.29652629641165623 1.0986092545898052 1.8651413539157922 66 64 60 -1 1 330 2 338 8 838
2212 0.29934738334585653 0.43543240515944703 0.87028709921445979 42 208 248 -1 0 909 1 331 10 914 11 324 13 546 16 960 17 757
2213 2.5800734855797476 1.7310022063554518 2.211438074168087 99 84 62 -1 9 909 13 547 14 397
2214 1.5317312864589105 0.57293521464999253 2.5447601892100526 142 128 109 -1 0 910 7 690 8 839 10 915 11 325 13 548 14 398 16 961 17 758 18 809
2215 1.8730050355774972 0.62724569864911617 2.4090132246600571 200 183 157 -1 7 691 13 549 15 356
2216 1.3313024727111538 1.4375324928282986 1.6397953822010503 87 86 79 -1 2 339 4 366 9 910
2229 2.3481905055556993 1.4968629241580165 1.9802343433279861 143 131 110 -1 7 697 8 846 15 361
2228 0.35466112416717915 0.47488040626757749 0.83985225131365293 19 163 229 -1 2 341 4 368 12 99 16 965 17 762
2227 0.29850187993239052 0.38111106352121349 0.92465327590393454 81 215 251 -1 0 915 11 330 13 557 16 964 17 761
2226 0.30322610427260993 0.40062114028144502 0.90911048035445174 27 196 247 -1 0 914 2 340 4 367 11 329 13 556 16 963
2225 3.068447715069889 -0.17202555068242537 2.9330045936943243 200 147 119 -1 8 845 13 555 14 403 15 360
2224 1.4189501257666173 0.42011298734298608 2.6432690513788999 175 164 143 -1 0 913 7 696 8 844 10 918 11 328 15 359 18 810
2223 1.5841566315122504 0.61233282041831483 2.503549937767771 139 127 110 -1 0 912 7 695 8 843 9 914 11 327 13 554 14 402
2222 1.6122478969868344 0.63349192888163131 2.489805382666626 122 113 95 -1 0 911 7 694 8 842 10 917 11 326 14 401 15 358
2221 3.2783947842660011 0.32547302954702179 2.4510999087762975 250 141 115 -1 8 841 9 913 13 553 15 357
2220 0.3010694685717365 0.48692210613386144 1.0333122095265947 21 106 156 -1 5 273 13 552 17 760
2219 3.7602312210084934 0.43588196298850229 2.3426012612298357 169 185 76 -1 7 693 9 912 14 400
2218 2.5799009801066961 1.9805492811705421 2.2322456421838877 173 157 135 -1 8 840 9 911 13 551 14 399
2217 0.29067847877913949 0.44262418069805926 0.86654716324856962 24 198 247 -1 1 332 7 692 10 916 13 550 16 962 17 759
2200 0.39041842653222225 0.39982499508051139 0.90563689654426893 122 169 181 -1 0 907 3 347 6 311 8 830 10 912 12 97 13 538
2199 2.2256031651537618 0.39994373865119492 2.5576173610744042 201 186 161 -1 7 681 8 829 13 537 15 353
2198 1.4678011058655467 0.58761865797954937 2.6586812078901909 131 119 100 -1 7 680 8 828 9 903 11 321 14 390 15 352
2197 6.1030712381373977 1.1845320689904693 1.6830531095584225 184 169 145 -1 7 679 14 389 15 351
2196 1.7484295490019517 0.8151827919316641 2.5272876496566785 155 142 121 -1 7 678 8 827 9 902 13 536 14 388 15 350
2195 0.33668708268792852 0.36657434031350811 0.94347538340588744 135 163 172 -1 0 906 1 329 8 826 12 96 13 535 17 756
2194 3.470383402066529 0.066849574995873545 2.7116257141421567 203 155 122 -1 7 677 8 825 9 901 13 534 14 387 15 349
2193 1.9665030217790271 0.5587534875783251 2.4378672997284343 197 181 158 -1 7 676 8 824 13 533 15 348
2192 2.9503248739442101 0.42055961812942233 2.4235295353210602 184 172 149 -1 7 675 9 900 15 347
2191 2.3212500979642359 1.3330069753350442 1.8609759699481823 147 133 113 -1 7 674 8 823 9 899 13 532 14 386
2190 0.30527939976166241 1.1282196028675171 1.8388077583588578 73 68 58 -1 2 337 8 822 14 385 15 346
2189 1.5336069988851746 0.7446165309596654 2.7239952300127008 104 95 78 -1 8 821 9 898 11 320 15 345
2188 3.958697881748118 -0.02659684892656675 2.8049656913747341 225 190 162 -1 7 673 8 820 9 897 13 531 14 384 15 344
2187 1.0229321070695947 0.80935942913594583 2.2416531891562959 115 101 86 -1 1 328 6 310 13 530
2186 0.30199572401916641 0.43786396825879359 0.8694588733410199 59 216 251 -1 1 327 7 672 8 819 9 896 10 911 11 319 14 383
2185 0.38806479426661006 0.42067529256304825 0.88323872261057323 121 175 192 -1 0 905 1 326 8 818 10 910 11 318 12 95 13 529
2184 3.8332818416651229 -0.37545682731975905 3.2846648495524873 168 155 132 -1 8 817 9 895 14 382
2183 3.4540453607825485 0.40407952722769647 2.3801287330687151 252 157 138 -1 7 671 8 816 15 343
2182 0.28211946276847144 0.41971620602560639 0.88897231758468476 25 189 239 -1 0 904 4 365 7 670 8 815 9 894 14 381
2181 0.29024135698915232 0.44436372995921608 0.86234421473794143 63 203 247 -1 3 346 4 364 7 669 9 893 10 909 12 94 13 528 16 957
2180 2.3302318356238363 1.4841464069623922 2.0004779865229478 134 122 101 -1 7 668 8 814 15 342
2179 0.28455668434631604 0.42352472742009212 0.88544791506595599 38 192 242 -1 0 903 4 363 8 813 9 892 13 527 14 380
2178 4.7094621334129387 -0.091934715108734938 2.8814704472474562 126 119 107 -1 7 667 8 812 9 891
2177 0.34889065702685562 0.53280389618296442 0.89511478417154655 56 113 151 -1 3 345 8 811 13 526
2176 1.8757283574812373 0.65882955499759521 2.4258098000806516 197 191 173 -1 7 666 8 810 9 890 11 317
2175 2.277718944195235 1.1939279039162729 1.8513896472647835 177 158 133 -1 7 665 13 525 14 379 15 341
2174 1.6048599703773911 0.70277730648599279 2.5698954510030956 125 112 95 -1 0 902 7 664 8 809 10 908 11 316 13 524 14 378 15 340 18 808
2173 3.2661023254841721 0.23409731661000585 2.5514943079048664 251 147 99 -1 7 663 8 808 9 889 13 523 14 377 15 339
2172 2.7843315169343779 2.1818188838469434 2.1233929409163119 177 158 133 -1 8 807 13 522 14 376
2171 0.38482991680236356 0.38667623566440479 0.91944190932990488 145 160 158 -1 1 325 6 309 8 806 10 907 11 315 13 521
2102 0.2766201146539663 0.56478943644085022 1.0649132609786316 31 87 120 -1 13 471 14 338 15 306
2101 0.37635616936340932 0.37869491505709096 0.9274840063798041 149 158 150 -1 8 759 12 89 13 470 17 746
2100 2.4412599589114405 1.5976780662831538 1.9146833398084993 116 95 70 -1 13 469 14 337 15 305
2099 0.34989661990716142 0.38315594502602879 0.92743473461932024 7 133 202 -1 0 888 3 341 8 758 9 856 12 88 13 468 16 941 17 745
2098 0.35091043393448401 0.40375898826221973 0.91419976280691828 77 213 250 -1 3 340 4 359 5 269 7 633 8 757 11 300 12 87 14 336 18 798
2097 0.34559323904548489 0.54096187244309213 0.90127703871494402 75 113 143 -1 3 339 8 756 13 467 14 335
2096 3.1680380369543668 -0.097038280429468729 2.864734528318396 217 147 130 -1 7 632 8 755 13 466 14 334
2095 2.3336363075637907 1.232294776365533 1.857208735553568 168 157 139 -1 7 631 8 754 9 855 14 333
2094 1.7262962320003439 0.81693599887047719 2.5509429658530176 136 122 104 -1 8 753 9 854 13 465 15 304
2093 2.3132047699196514 1.2704165046674465 1.8398844907007459 160 146 126 -1 7 630 8 752 9 853 13 464 14 332
2092 3.8378400113040612 0.52864062546945623 2.2469556993818123 244 208 177 -1 7 629 8 751 9 852 13 463
2091 0.27635331147238235 0.51360013306582641 0.98635246012229938 77 143 185 -1 13 462 16 940 18 797
2090 1.3076296380299759 0.51974859267732132 2.865972991922058 118 105 85 -1 7 628 8 750 10 893 13 461 14 331 15 303
2089 3.3315959706615978 0.3406006681107393 2.428881109349915 253 187 169 -1 7 627 8 749 9 851
2088 4.4434222532324323 -0.44514443177700425 3.205704476365518 147 131 110 -1 9 850 13 460 15 302
2087 1.600495171329205 0.62380510457383875 2.4950764430418029 137 127 110 -1 0 887 7 626 8 748 9 849 10 892 11 299 14 330 15 301
2086 0.28509134696459953 0.39395526452708773 0.91144714205904998 98 204 238 -1 2 328 3 338 4 358 8 747 13 459
2085 0.31821051666770683 1.1577289127824792 1.80836670970033 71 66 56 -1 2 327 8 746 14 329 15 300
2084 0.36273511816470655 0.39537871584686934 0.92313963934153354 33 198 249 -1 10 891 13 458 16 939 17 744 18 796
2083 0.28309696563464792 0.39771194893371653 0.90830334925502676 60 191 240 -1 4 357 8 745 13 457
2082 0.28975794706686253 0.44093579871162858 0.8674280182450339 26 200 248 -1 1 313 9 848 10 890 13 456 16 938 17 743
2081 1.4646414053015766 0.514363356285922 2.6255920550698457 153 139 118 -1 0 886 7 625 8 744 11 298 13 455 14 328 15 299 16 937 17 742
2080 0.28346950163295859 0.42154162949454294 0.88642526719857373 58 196 240 -1 0 885 3 337 4 356 8 743 9 847 13 454 14 327
2079 1.3915725782381656 0.43820838404590884 2.6653565486705775 147 149 138 -1 0 884 7 624 8 742 9 846 10 889 11 297 14 326 15 298 18 795
2078 1.4151170952372811 0.51372811764782311 2.6808932945055428 137 124 103 -1 0 883 7 623 8 741 10 888 11 296 13 453 14 325 15 297 18 794
2077 0.33720532069741388 0.3664992041326976 0.94900759855704786 105 180 196 -1 9 845 12 86 16 936
2076 4.5546742362520627 -0.36736498349121183 3.1856081827846618 129 110 87 -1 13 452 14 324 15 296
2075 3.286660574282938 0.28547730424556012 2.5023910653788941 249 130 116 -1 7 622 8 740 9 844
2074 3.6410239559801734 -0.20030512181898419 2.9848246996989953 207 172 152 -1 7 621 8 739 9 843 13 451 14 323 15 295
2073 3.24093030616931 -0.0059303746198469337 2.7756156824363591 252 145 106 -1 7 620 8 738 13 450 14 322 15 294
2072 3.2685094841749831 0.31305549386897391 2.4685809073620839 247 133 102 -1 9 842 13 449 15 293
2071 0.29209431504370381 0.44609067908696026 0.86258352177461473 34 201 248 -1 4 355 7 619 8 737 9 841 10 887 13 448 16 935 17 741
2070 0.38932364720196255 0.41770859299289054 0.88609234101857959 113 171 187 -1 1 312 9 840 10 886 12 85 13 447
2069 0.2930003298636582 0.42743527068161835 0.87982740520908065 84 211 245 -1 0 882 11 295 13 446 14 321 16 934
2068 3.6944291990460525 0.38865994841291601 2.3746879056039711 232 203 59 -1 7 618 8 736 9 839 13 445 15 292
2067 3.4122225862942308 0.80396296511618337 1.9708708672264923 194 122 114 -1 7 617 8 735 9 838 15 291
2066 3.6572494948186529 0.59324173267769276 2.1716422614599549 241 159 141 -1 7 616 8 734 9 837 13 444
2065 0.2809868313835665 0.41652744867568109 0.89462780784192486 23 192 239 -1 0 881 8 733 9 836 10 885 13 443 14 320 16 933
2064 4.1700695500616689 0.40265714000745084 2.3807276256603163 134 98 78 -1 7 615 8 732 9 835
2063 0.32183071113713746 0.47645724423814012 0.84232555972721579 64 185 233 -1 0 880 3 336 5 268 6 301 7 614 10 884
2062 0.36960385075225943 0.37406860844151324 0.9340326988259614 116 146 153 -1 4 354 6 300 11 294 12 84 13 442 17 740
2061 0.36154707855878043 0.4388852771950667 0.86837706901488254 59 175 221 -1 4 353 8 731 9 834 11 293 13 441
2060 3.3879276265085103 0.0038613130732175135 2.7797770703152538 253 172 116 -1 8 730 13 440 14 319 15 290
2059 4.446765214650231 -0.41148656001489159 3.2082409091270492 130 120 100 -1 8 729 9 833 14 318 15 289
2058 0.35229780976725361 0.51662104381178164 0.87963559860125373 57 112 151 -1 3 335 6 299 13 439
2057 0.33461365764662443 0.47449654405703584 0.83911330924827932 92 191 224 -1 2 326 4 352 6 298 13 438
2056 0.28498202126078748 0.43256792527307703 0.96277575462069265 51 136 183 -1 0 879 10 883 13 437 14 317
2055 0.28759058022046813 0.39155996257997355 0.91547497890984209 83 200 242 -1 2 325 5 267 13 436 16 932
2054 1.9073273378724012 0.62795655876912815 2.4225629980756032 202 195 177 -1 7 613 8 728 9 832
2053 1.3171511612829863 0.52810480908367097 2.8653388510853568 112 98 79 -1 7 612 8 727 10 882 13 435 14 316 15 288
2052 0.34806125688085787 0.36616383763342791 0.93977749558189683 171 171 159 -1 1 311 8 726 17 739 18 793
2051 0.31113988707021206 1.137092453380518 1.8294714583231315 69 68 63 -1 1 310 2 324 8 725
2050 2.6170780865430809 1.7856083629739083 2.0566121525475265 104 84 58 -1 13 434 14 315 15 287
2049 3.4263982337040804 -0.020620743799270834 2.8179452769201356 244 169 123 -1 9 831 13 433 14 314 15 286
2048 1.6091707094826626 0.62863156663440456 2.4958928591593228 130 120 103 -1 0 878 7 611 8 724 10 881 11 292 14 313 15 285
2047 0.33080772273165643 0.40911507384804874 0.90152895156774726 60 206 247 -1 2 323 7 610 8 723 9 830 13 432
2046 3.2085855919924522 0.18691861002274471 2.6179015689574321 186 105 83 -1 8 722 9 829 13 431 14 312
2045 0.34883080035498876 0.57448623979081592 0.93532774025058041 35 90 128 -1 3 334 4 351 13 430
2044 0.36170381769685844 0.42213900411909333 0.89841111349345282 20 177 237 -1 1 309 4 350 7 609 16 931 17 738 18 792
2043 0.36441351535706284 0.39766151074338757 0.91890715892183428 24 194 243 -1 10 880 13 429 16 930 17 737
2042 1.64711503747396 0.80913982759961012 2.6238251945238744 102 84 61 -1 13 428 14 311 15 284
2041 0.35143905570060946 0.53004554273930415 0.89278009033340766 47 88 121 -1 3 333 4 349 13 427
2040 2.3515485789122117 1.3617645759681003 1.8496926239945366 143 129 110 -1 7 608 8 721 9 828 13 426 14 310
2039 3.2343346457217872 0.16121340362428707 2.6503013587844331 227 117 94 -1 7 607 8 720 9 827 13 425 14 309 15 283
2038 3.7831560260830002 0.46330344583589295 2.3177436872373005 202 203 73 -1 7 606 8 719 9 826 13 424 14 308
2037 6.0361228642274298 1.130634095781883 1.7135158940767359 169 159 140 -1 7 605 8 718 15 282
2036 3.3170220696946351 0.47554096548860098 2.3238213536935222 195 97 85 -1 7 604 8 717 9 825
2035 1.4727955155145489 0.68367540555032758 2.7797812634490415 118 105 85 -1 0 877 7 603 8 716 11 291 13 423 14 307 15 281
2034 3.7768941367525377 0.38335461622669581 2.3606430182597622 234 216 173 -1 7 602 9 824 13 422
2033 1.3809088974004817 0.42707736752948788 2.6754927917421112 151 152 139 -1 0 876 7 601 8 715 9 823 10 879 11 290 15 280 16 929 17 736 18 791
2032 0.38763797751455775 0.42200558207014316 0.881628665052125 120 176 189 -1 0 875 1 308 8 714 9 822 10 878 12 83 13 421
2031 1.6856298429744543 0.83703608878992741 2.6365743084665803 110 95 78 -1 8 713 9 821 13 420 14 306 15 279
2030 2.5917027097741401 2.0078105660380512 2.268728833660921 143 127 108 -1 7 600 9 820 13 419 14 305
2029 0.39091745373802606 0.41531504733815439 0.8890296618392135 111 176 197 -1 0 874 1 307 3 332 10 877 11 289 12 82 13 418
2028 0.28710691632538388 0.39592734203033259 0.9121187067662917 79 205 245 -1 2 322 5 266 8 712 13 417 14 304 16 928
2027 3.4182296756092647 0.78231364671333492 2.0064372165803124 244 134 107 -1 7 599 8 711 9 819
2026 0.30481089397485212 1.1113747573394315 1.8556392952582714 71 67 60 -1 1 306 2 321 8 710 14 303
2025 0.37089747892973879 0.37422066600339005 0.93243767720760107 143 171 167 -1 6 297 8 709 11 288 12 81 17 735
2024 2.302151220501274 1.4458629853773106 2.0132036269718507 128 113 90 -1 7 598 8 708 13 416 14 302 15 278
2023 3.0631895830559932 -0.16073338264209058 2.9322992249676503 178 141 114 -1 8 707 13 415 14 301 15 277
2022 0.37937288714020456 0.38084293464834168 0.92493627726496563 143 162 161 -1 1 305 6 296 8 706 11 287 12 80 16 927 17 734
2021 0.36279984440454355 0.37057580508851151 0.9374636511697968 112 148 160 -1 4 348 5 265 8 705 11 286 13 414 17 733
2020 3.6768929738515261 -0.18107197794293819 2.9658111300184324 165 123 95 -1 7 597 8 704 9 818 13 413 14 300 15 276
2019 1.4748694228706085 0.67427362187809003 2.7564350535707507 131 115 92 -1 0 873 8 703 11 285 13 412 14 299 15 275 16 926 18 790
2018 1.3813063081003407 0.39529609129648685 2.666173807363462 162 154 134 -1 0 872 7 596 8 702 10 876 11 284 15 274
2017 3.4046237369706907 -0.053522484435005603 2.831624754659976 213 152 127 -1 7 595 8 701 9 817 13 411 14 298 15 273
2016 1.7977939862168526 0.68167562302235107 2.4192717924528551 169 156 136 -1 7 594 8 700 9 816 11 283 13 410 14 297 15 272
2015 3.7536655213675263 0.35968075716318548 2.4052602313779268 243 234 170 -1 7 593 8 699 9 815 13 409
2014 0.32903940666080805 0.43327365793261668 0.87593100968228188 31 184 237 -1 0 871 1 304 2 320 3 331 4 347 8 698 9 814 10 875 13 408 14 296 16 925 17 732
2013 3.414726409011934 -0.20475925631918543 2.976761662491608 230 159 125 -1 13 407 14 295 15 271
2012 2.9458164130565083 2.0720036961984376 1.8588190528559883 114 97 74 -1 8 697 13 406 14 294 15 270
2011 2.4452559910804639 1.1724667541727509 1.7553971677175815 208 190 161 -1 7 592 8 696 13 405 14 293 15 269
2010 2.853687791686172 0.012724144411284324 2.8929997123357176 193 178 158 -1 7 591 8 695 9 813 13 404
2009 0.35453324551722737 0.39134123729069775 0.92316065511714218 32 209 247 -1 0 870 1 303 8 694 13 403 16 924 17 731
2008 1.5443102301412346 0.86852442586495504 2.9826923906265765 64 49 31 -1 11 282 13 402 14 292
2007 1.6425891212101293 0.64198541329971615 2.459853755204287 117 103 80 -1 11 281 13 401 14 291 15 268
2006 0.30548263909509565 0.39593938653019656 0.91452599339783247 27 190 247 -1 2 319 4 346 12 79
2005 0.30080905363521709 1.1017927684336901 1.8641244770235859 68 61 53 -1 1 302 8 693 13 400
2004 2.5833332521282943 1.809121342599163 1.9367428253683243 109 93 71 -1 9 812 14 290 15 267
2003 3.2194655188719858 0.11725773237183304 2.6924244037216196 221 127 92 -1 7 590 8 692 9 811 13 399 14 289
2002 1.6240306554260608 0.60280916841670085 2.4690637448126149 156 143 124 -1 0 869 8 691 9 810 10 874 11 280 13 398 14 288 15 266
2001 0.27839937801537579 0.46886063348471652 0.97242315294933612 43 119 166 -1 4 345 10 873 13 397 14 287 17 730
2000 3.4482484442766146 0.749859076059885 2.0573450497797645 203 132 93 -1 7 589 8 690 9 809 13 396 15 265
1999 0.29753936013235399 0.43378062123842431 0.87247914867929077 57 204 247 -1 0 868 1 301 11 279 13 395 16 923
1998 0.29422610099622742 0.47803250257652879 0.86397150921695065 59 168 217 -1 4 344 5 264 7 588 14 286 16 922 18 789
1997 3.4244002845239203 0.68564777368863039 2.1121404939019035 252 123 102 -1 7 587 8 689 9 808
1996 1.8293616620482838 0.67638801733954967 2.4289691267987399 183 170 150 -1 7 586 8 688 9 807 13 394 15 264
1995 1.6740988963700683 0.65401123580544585 2.4546908512120882 121 109 90 -1 7 585 8 687 11 278 13 393 14 285 15 263
1994 2.3998220727824497 1.5503534892695101 1.9345985724302752 127 112 90 -1 7 584 8 686 13 392 14 284
1993 0.34180073075776102 0.37340739759889469 0.93435009753011855 50 184 241 -1 3 330 7 583 8 685 9 806 13 391 16 921 17 729 18 788
1992 0.28718500185437684 0.43116098491953503 0.87828348665199096 27 189 242 -1 0 867 7 582 8 684 9 805 10 872 13 390 14 283
1991 3.2998380475292075 0.34900859157813291 2.4544536945926376 211 132 102 -1 7 581 8 683 9 804 13 389 15 262
1990 0.35980012522801624 0.41717840054941385 0.90257351026207067 24 203 251 -1 7 580 8 682 9 803 10 871 16 920 17 728
1989 2.9935957665322581 2.1051921320087348 1.8446173287966716 113 92 67 -1 13 388 14 282 15 261
1988 0.28798003700800889 0.4338012558998211 0.87489994814282157 37 197 245 -1 0 866 7 579 8 681 10 870 13 387 14 281
1987 4.50969271881198 -0.20779675845506634 2.9739271548409487 133 123 106 -1 7 578 8 680 14 280
1986 4.0042272089274578 0.63355620576015725 2.1504802678623429 197 184 106 -1 7 577 8 679 13 386 14 279
1985 4.1994032588985926 0.19384352639507599 2.5702247499118736 172 155 133 -1 7 576 8 678 9 802
1984 0.33998277740617994 0.36571828549772306 0.94370238619719871 151 158 152 -1 8 677 12 78 13 385 17 727
1983 0.37716160581381497 0.38015097150072058 0.92580571873473272 130 162 168 -1 3 329 6 295 8 676 11 277 13 384 17 726
1982 0.35817309089876387 0.42381020448639095 0.89339948451431872 34 203 249 -1 1 300 2 318 4 343 6 294 7 575 16 919 17 725 18 787
1981 4.1675860916844609 0.43802621080647425 2.3375101943910344 192 151 102 -1 7 574 8 675 9 801 13 383
1980 0.29574445519847281 0.43140491889854077 0.87467538616166174 52 192 238 -1 0 865 1 299 4 342 11 276 13 382 16 918 17 724
1979 1.9791125883681633 0.54275850557055227 2.4542545651534753 191 173 148 -1 8 674 13 381 15 260
1978 1.8132823447300157 0.94799555585541129 2.6093855243544248 167 159 142 -1 0 864 7 573 8 673 9 800 15 259
1977 2.4688728733383618 0.27117204529681022 2.6722205548111559 185 171 150 -1 7 572 8 672 13 380
1976 3.4083215531210591 0.71577077683180967 2.0759157506895365 250 141 91 -1 7 571 8 671 9 799 13 379
1975 0.3856651931470001 0.38818393400755574 0.91792023598257766 126 167 178 -1 1 298 3 328 6 293 8 670 10 869 11 275 13 378
1974 1.8432764810286084 0.67034769224722235 2.4237470931324356 186 170 148 -1 7 570 9 798 13 377 15 258
1973 1.7807134547080394 0.61345207867658114 2.4088660115446623 179 165 143 -1 0 863 8 669 10 868 13 376 14 278 15 257
1688 4.1363175582989928 -1.0912126677982943 3.654980687463194 166 154 135 -1 8 449 9 655 15 126
1687 3.2966714202161911 0.42187839212602324 2.3685226688471022 203 144 115 -1 7 398 8 448 9 654 13 182 15 125
1686 3.7249488472690211 0.37881697066872033 2.3843897980523212 240 221 85 -1 7 397 8 447 9 653 15 124
1685 3.6254649756863646 0.28832682817964556 2.4963447782671162 132 126 131 -1 7 396 8 446 9 652 14 144 15 123
1684 0.37023325113936439 0.40823993290273575 0.90486667758706707 31 183 238 -1 0 807 1 271 3 302 7 395 8 445 10 814 11 205 13 181 14 143 16 866
1683 1.7365874854925862 0.80695690638501882 2.5283256551483668 169 157 136 -1 7 394 8 444 11 204 14 142 15 122
1682 3.2268961180343196 0.23432094014854338 2.567579834126462 191 124 90 -1 7 393 8 443 9 651 13 180 14 141 15 121
1681 0.35099513927763099 0.37499643277837558 0.93377922061683083 46 184 230 -1 0 806 8 442 9 650 12 53 13 179 16 865 17 671 18 757
1680 3.8371317825844393 0.038882248074034099 2.7588076933893468 224 184 153 -1 7 392 8 441 9 649 13 178 14 140 15 120
1679 0.2768993235959632 0.56341598826259354 1.0665905287790494 23 106 151 -1 6 273 13 177 15 119
1678 0.37474321768894525 0.38711860501461176 0.92256806718600226 52 191 233 -1 0 805 1 270 5 252 6 272 8 440 9 648 11 203 12 52 13 176 17 670 18 756
1677 3.7836165754321702 0.52356920989863709 2.2507063941345402 250 124 101 -1 7 391 8 439 9 647 13 175
1676 1.7876970763106022 0.67463736302100663 2.4163765228732297 163 152 132 -1 7 390 8 438 9 646 11 202 13 174 15 118
1675 0.27661347640471967 0.5500940307227693 1.0158111873300715 37 114 156 -1 0 804 13 173 14 139
1674 1.4189213883041751 0.48676558946899606 2.6518179225590379 146 138 121 -1 0 803 7 389 8 437 9 645 10 813 11 201 13 172 14 138 15 117 18 755
1673 3.6923704803361956 0.61452877765408775 2.1627167184434812 249 159 144 -1 7 388 8 436 9 644 13 171
1672 0.340934606395845 0.36644552049749518 0.9416474925618048 155 171 169 -1 8 435 13 170 17 669
1671 3.1027205050220634 -0.054861610671956093 2.8221104342047982 185 93 69 -1 7 387 8 434 13 169 15 116
1670 3.7457474921779186 -0.069667854036795804 2.8634917851440309 175 132 85 -1 7 386 8 433 9 643 13 168 14 137 15 115
1669 0.36700379382546472 0.38122928612146817 0.92866423751470972 46 181 228 -1 0 802 1 269 5 251 7 385 8 432 9 642 10 812 11 200 12 51 13 167 18 754
1668 0.27677199327286489 0.57247333735801897 1.038761609027006 42 97 125 -1 11 199 13 166 14 136 15 114
1667 3.5019801702824886 0.78491217996885032 1.9843744105103458 247 155 89 -1 7 384 8 431 9 641
1666 4.0108128990946588 -0.14702685457042419 2.9247411054432475 240 177 123 -1 7 383 8 430 9 640 13 165 14 135 15 113
1665 0.27534964889621133 0.57946286612181341 1.0491925522568972 48 121 161 -1 13 164 15 112 18 753
1664 0.3056171390554579 0.41527121528808786 0.89617180077443104 50 202 248 -1 7 382 8 429 10 811 11 198 12 50 13 163 14 134 16 864 17 668
1663 0.33871744536858556 1.1959262910614816 1.7703863004854743 48 61 66 -1 1 268 4 325 8 428 14 133
1662 1.3106543108606368 0.53521804530750594 2.8516274636261545 101 85 64 -1 8 427 13 162 14 132 15 111
1661 3.2960203997509621 0.39275122141368185 2.4020224061827693 212 133 104 -1 7 381 8 426 9 639 13 161 15 110
1660 3.7979658243804519 0.16015650361287234 2.6071163048010164 150 123 92 -1 7 380 8 425 9 638 13 160 15 109
1659 0.318654613347368 0.43118667046772297 0.87601042263365225 14 168 224 -1 0 801 3 301 6 271 8 424 10 810 11 197 16 863 17 667
1658 3.4484871699400439 0.75085434959407693 2.0448706400501933 249 148 86 -1 7 379 8 423 9 637
1657 1.1224888233929213 0.87532465880279386 2.1480799472465812 104 89 72 -1 0 800 13 159 14 131
1656 0.36832290273506169 0.40422104333073927 0.90985481663564105 29 192 240 -1 0 799 1 267 7 378 10 809 12 49 13 158 14 130 16 862
1655 3.073946447428165 -0.092030620445841371 2.8501567524948594 183 97 70 -1 7 377 8 422 13 157 14 129 15 108
1654 3.0876414537345069 -0.13728245139469294 2.9041839471401691 214 124 93 -1 7 376 8 421 13 156 14 128 15 107
1653 0.33628618144052741 0.43496672952429877 0.87318420546485709 34 152 218 -1 0 798 1 266 2 300 3 300 4 324 8 420 16 861 17 666
1652 3.8285341584528929 -0.058079932726654959 2.8265104325267427 251 215 97 -1 9 636 13 155 14 127 15 106
1651 0.31539198306642169 0.42916716384136888 0.87902386096791896 11 176 232 -1 0 797 3 299 7 375 10 808 16 860 17 665
1650 0.36020225772141029 0.37832400195253557 0.93066734410166441 35 179 231 -1 0 796 1 265 7 374 8 419 9 635 10 807 11 196 13 154 17 664 18 752
1649 0.30565076873665598 0.4212617152787278 0.88777435863764775 81 212 249 -1 10 806 13 153 14 126 18 751
1648 0.35912729329918791 0.47626237545607403 0.84049168324950863 30 143 203 -1 2 299 4 323 13 152 16 859 18 750
1647 3.188787465370198 0.10394479205405009 2.6950609254715339 192 118 78 -1 7 373 8 418 9 634 13 151 14 125 15 105
1646 3.1321193526480542 0.064377886430763198 2.7139350450186641 193 132 64 -1 9 633 13 150 14 124 15 104
1645 2.9965172436506147 2.1109275363860678 1.8367093548037441 112 91 67 -1 13 149 14 123 15 103
1644 3.7604011476907671 -0.011410126484652837 2.8067480330292582 179 138 100 -1 7 372 8 417 9 632 13 148 14 122 15 102
1643 0.37284146860035072 0.38563456745076857 0.92390964658394814 48 186 230 -1 0 795 1 264 5 250 6 270 7 371 8 416 9 631 11 195 12 48 13 147 17 663 18 749
1642 0.34166743721263204 0.42917305235112013 0.88132815365915107 42 205 248 -1 0 794 8 415 10 805 12 47 16 858 17 662
1641 3.8676391627598306 -0.0017295668671719485 2.7910140861772454 219 181 149 -1 7 370 8 414 9 630 13 146 15 101
1640 0.32908414856045531 1.181705211637845 1.7632295964550289 69 66 59 -1 2 298 8 413 14 121
1639 3.6952810205739359 -0.1833535652500132 2.9698197228973209 184 140 111 -1 7 369 8 412 9 629 13 145 14 120 15 100
1638 3.7173236615452612 0.36324950096638509 2.3977682117805217 250 233 114 -1 7 368 8 411 9 628 13 144
1637 0.38544559431076214 0.40462528752259186 0.90670764581530572 53 200 242 -1 0 793 1 263 5 249 6 269 8 410 10 804 11 194 12 46 17 661
1636 3.1009612250971763 -0.06264977030965585 2.8307772409215626 174 88 64 -1 7 367 8 409 13 143 15 99
1635 3.3224681817182407 0.14215785078839677 2.6501725018916038 251 195 87 -1 7 366 8 408 9 627 13 142 14 119 15 98
1634 3.5854391222928874 -0.088197501336067338 2.8815770446024644 207 150 100 -1 7 365 8 407 13 141 14 118 15 97
1633 3.2281453011326429 0.19096934519576481 2.6082428226073953 237 122 92 -1 7 364 8 406 9 626 13 140 14 117 15 96
1632 0.36776063742788723 0.41674428176401301 0.89497038422781416 60 212 252 -1 0 792 11 193 13 139 14 116 16 857 17 660 18 748
1631 3.8052309357881424 0.11507537123541266 2.6590558497836057 199 156 123 -1 7 363 8 405 9 625 13 138 15 95
1630 0.37934014156173723 0.39280634528137121 0.91699920165438897 50 182 228 -1 0 791 6 268 8 404 10 803 11 192 12 45 13 137 14 115 16 856 17 659
1629 0.36976422115122143 0.41331168822928227 0.89933914602692477 30 198 244 -1 0 790 7 362 8 403 11 191 13 136 14 114
1628 3.4083820764429205 0.6791282911900296 2.1201992606603217 251 120 101 -1 7 361 8 402 9 624 13 135
1627 0.366558937878042 0.40219788184867988 0.91594296888094784 8 176 235 -1 0 789 1 262 9 623 11 190 16 855 17 658
1626 1.4020771496133213 1.3734592252037416 1.6691739100586132 66 61 54 -1 0 788 10 802 11 189
1625 3.3788274419137907 0.13901811755393975 2.6437779599386464 252 196 107 -1 7 360 8 401 9 622 13 134 14 113 15 94
1624 0.38515516936735766 0.40564987728235335 0.90415646561216056 67 204 243 -1 0 787 5 248 6 267 8 400 10 801 12 44 13 133 14 112 16 854
1623 3.585925215438178 -0.067261417796894638 2.8569543681784841 210 159 122 -1 7 359 8 399 9 621 13 132 14 111 15 93
1622 3.1315760517619036 0.042445625398429852 2.7355287228925107 190 118 72 -1 9 620 13 131 14 110 15 92
1621 1.6618101348592089 0.65074068493564108 2.4559694865460164 125 113 93 -1 7 358 8 398 11 188 13 130 14 109 15 91
1620 4.4029570060724055 -0.3904270360807916 3.1706325690566159 140 127 105 -1 8 397 14 108 15 90
1619 0.27729909097141087 0.58332621840372822 1.0488091392235621 61 132 175 -1 13 129 15 89 16 853 18 747
1618 0.36545072141878632 0.41965003718672267 0.89151169087263293 33 198 248 -1 0 786 7 357 10 800 13 128 16 852 17 657
1617 3.1397081555248723 -0.026821975051452389 2.812339948540314 173 85 61 -1 7 356 9 619 13 127 14 107 15 88
1616 3.3005252710503798 0.44976604582764612 2.3469143586149643 229 125 102 -1 7 355 8 396 9 618 13 126 15 87
1615 0.38577165483788001 0.40954115698644611 0.90102083015160495 68 204 242 -1 0 785 1 261 6 266 8 395 10 799 11 187 12 43 17 656 18 746
1614 3.5676574035618951 0.51627666247312509 2.2574320692482113 235 131 81 -1 7 354 8 394 9 617
1613 0.37732431171508657 0.39049468450059144 0.91878306303951784 46 175 220 -1 0 784 5 247 8 393 10 798 11 186 12 42 13 125 17 655
1612 3.3715415102414417 -0.0019106370895481306 2.7776772127526792 250 168 120 -1 7 353 8 392 13 124 14 106 15 86
1611 0.36416025765382048 0.37976556859973221 0.93017987262178625 45 177 229 -1 1 260 5 246 7 352 8 391 10 797 11 185 12 41 13 123 18 745
1610 3.1714577497149352 0.071959850599771724 2.7251115568652162 178 121 66 -1 7 351 9 616 13 122 14 105 15 85
1609 0.36759657824856706 0.38182124427784997 0.92717396475266078 42 183 230 -1 0 783 1 259 5 245 7 350 8 390 9 615 10 796 11 184 13 121 17 654
1608 3.4193501080989415 0.40919601100952857 2.3720718474067901 252 158 138 -1 7 349 8 389 15 84
1607 0.3845435190707619 0.41675090169961182 0.8924060674621086 68 201 246 -1 1 258 6 265 10 795 11 183 12 40 13 120 14 104 16 851
1606 1.589783289500516 0.62097492741479698 2.5007087279169133 137 126 108 -1 7 348 8 388 9 614 11 182 14 103 15 83
1605 0.38487774987704748 0.40314733660630009 0.90864007651534118 48 193 238 -1 0 782 1 257 3 298 5 244 6 264 8 387 10 794 11 181 12 39 17 653
1604 3.2098220235871038 0.11344829580575436 2.6900377433303251 219 130 90 -1 7 347 8 386 9 613 13 119 14 102 15 82
1603 0.35617402958032635 0.39236032196558535 0.92243115415737365 31 203 248 -1 0 781 1 256 8 385 9 612 10 793 12 38 13 118 14 101 16 850 17 652 18 744
1602 0.38383398821640602 0.39952065473322423 0.91054408868758085 52 195 240 -1 0 780 1 255 6 263 8 384 10 792 11 180 12 37 13 117 17 651
1601 3.9668173082436504 0.27696179180019814 2.5096423623957018 169 154 141 -1 7 346 8 383 9 611 13 116 15 81
1600 3.2223931477735364 0.11986313140881102 2.6845446583381243 236 130 95 -1 7 345 8 382 9 610 13 115 14 100 15 80
1599 0.36867191552468997 0.41451383154414739 0.89769827816788783 42 201 245 -1 0 779 7 344 8 381 11 179 13 114 14 99 16 849 17 650
1598 0.38406253122339945 0.41380218464584617 0.89609946437862931 66 201 241 -1 0 778 5 243 6 262 8 380 14 98 16 848 17 649 18 743
1597 0.33927641253075319 1.1924740930495501 1.7674839885245945 54 63 67 -1 1 254 4 322 8 379 14 97
1596 0.27897898701711377 0.4528427881575629 0.96113472129248267 97 184 241 -1 0 777 16 847 17 648 18 742
1595 3.1701203713316271 0.0049831198123362931 2.7932075747261704 192 93 68 -1 7 343 13 113 14 96
1594 3.4221618316758242 -0.087397013818301728 2.8665726344298399 206 147 121 -1 7 342 8 378 9 609 13 112 14 95 15 79
1593 4.0638414403059526 0.16264293133347119 2.6161498440653852 198 157 115 -1 7 341 8 377 9 608 13 111 15 78
1592 0.36386721816360207 0.42129771848717412 0.88913538569644956 41 202 248 -1 0 776 5 242 7 340 10 791 11 178 13 110 14 94 16 846 17 647
1591 3.2242740358381567 0.15330548355603099 2.6559705756675704 222 117 93 -1 7 339 8 376 9 607 13 109 14 93 15 77
1590 3.8199962950777127 0.16949713873023334 2.6043694259869818 150 123 98 -1 7 338 8 375 9 606 13 108 15 76
1589 0.38244581423698287 0.39686390960115125 0.9124267561565883 58 197 240 -1 0 775 1 253 5 241 6 261 8 374 10 790 11 177 12 36 13 107 17 646
1588 1.8034141981972924 0.96334054664668445 2.6178539331924013 155 149 137 -1 0 774 7 337 8 373 9 605 10 789
1587 0.35816444874002051 0.37740419996310315 0.9317225947553941 43 179 229 -1 0 773 1 252 8 372 9 604 11 176 13 106 17 645 18 741
1586 0.37826756912727033 0.39110954929557218 0.91849961654603118 48 187 231 -1 0 772 1 251 5 240 6 260 7 336 8 371 11 175 12 35 17 644
1585 3.7680631107587006 0.085429167281521001 2.7022425486025639 163 120 89 -1 7 335 8 370 9 603 13 105 14 92 15 75
1584 0.31263472134284331 0.42807705404286794 0.87960925633043963 29 184 230 -1 1 250 7 334 16 845 17 643 18 740
1583 0.29272803508822554 0.41855002071866482 0.95901485173692858 30 121 166 -1 0 771 5 239 13 104 14 91
1582 3.7581949484246469 -0.046302996158531319 2.8440768043993634 187 145 93 -1 7 333 8 369 9 602 13 103 14 90 15 74
1581 0.38118241412986109 0.39481528519394965 0.9152236951298387 61 194 237 -1 0 770 5 238 6 259 8 368 10 788 11 174 12 34 13 102 14 89 17 642
1580 2.6593017344037464 0.16129540617435803 2.7815659711669789 196 178 152 -1 7 332 13 101 15 73
1579 3.4990515905266708 0.78173471258719762 1.9913518664001182 246 133 101 -1 7 331 8 367 9 601
1578 0.38283905521328565 0.42132977204798133 0.88797832608013061 84 211 244 -1 0 769 6 258 8 366 11 173 12 33 16 844 17 641 18 739
1577 3.1729706096429462 -0.14307855066614916 2.9082359429946032 197 119 99 -1 7 330 8 365 13 100 14 88 15 72
1576 0.38515883605121298 0.41119333137381986 0.8988388557738316 68 203 239 -1 0 768 5 237 6 257 8 364 10 787 11 172 12 32 17 640 18 738
1575 0.38457838889415991 0.40068914009262135 0.90976576102180085 56 197 242 -1 0 767 1 249 3 297 5 236 6 256 7 329 8 363 10 786 11 171 12 31 13 99 14 87 17 639
1574 3.1768140735737429 0.044534923233663495 2.7537882431386906 193 124 65 -1 7 328 13 98 14 86 15 71
1573 3.7530626925169361 -0.028439389247711121 2.8183975380151596 193 150 105 -1 7 327 8 362 9 600 13 97 14 85 15 70
1572 0.38329138270367125 0.41255770872281217 0.89547629711854038 48 193 238 -1 0 766 5 235 6 255 8 361 10 785 11 170 16 843 17 638
1571 0.36785310243207797 0.40383344161818058 0.9132804778597714 14 180 234 -1 0 765 1 248 9 599 10 784 11 169 17 637
1570 3.8013372517729098 0.12526948064931079 2.6455669976111804 187 149 109 -1 7 326 8 360 9 598 13 96 15 69
1569 0.38271348670076111 0.42580599884787146 0.88441910579837479 70 197 242 -1 1 247 3 296 6 254 10 783 13 95 14 84
1568 3.193523103027383 -0.040418787057393823 2.8103553047706868 185 111 88 -1 7 325 8 359 9 597 13 94 14 83 15 68
1567 4.188792221666982 0.41993281685916062 2.3562364971109164 145 121 90 -1 7 324 8 358 9 596
1566 3.6991038128780236 0.66126775717322095 2.1222051505252577 250 186 112 -1 7 323 8 357 9 595 13 93
1565 3.2897218179868362 0.36317841111421756 2.4300757279111158 228 145 117 -1 7 322 8 356 9 594 15 67
1564 0.37180818020183631 0.43403437312136889 0.87476284323354803 81 211 248 -1 0 764 6 253 11 168 13 92 14 82 16 842 17 636 18 737
1563 3.7558608567851448 -0.056932128867873542 2.8535449411957097 192 151 89 -1 7 321 8 355 13 91 14 81 15 66
1562 0.36698834663215274 0.41753552955623691 0.89361616897756002 44 208 249 -1 0 763 7 320 11 167 13 90 14 80 16 841 17 635
1561 0.29041342365188727 0.66127353474850326 1.0618365476173461 12 96 140 -1 10 782 13 89 14 79
1560 0.38667437216304318 0.40666860149808054 0.90385171620728277 62 203 245 -1 0 762 1 246 3 295 6 252 8 354 10 781 13 88 14 78 17 634 18 736
